ply
format ascii 1.0
element vertex 827
property float x
property float y
property float z
end_header
1.8763168151367047 -0.06707037704159256 15.7722794215742
1.8685838790004472 0.2794198302514705 15.69011151492286
1.8627453142454469 0.45972765101293556 15.62080187994472
1.8776726940783774 0.011331598392313015 15.758542050072267
1.8826333787590528 -0.6755122763671819 15.799571463750397
1.8665918849587475 0.35074608841947935 15.653529096041545
1.903824594545885 -0.38809279546002184 15.776032718867011
1.9177010646728232 -0.8770142421691296 15.875075493691746
1.912754881415801 -0.21106631765264383 15.821122317344207
1.904420014352845 -0.02744637216557535 15.736258560194358
1.9023819501279642 -0.13534642215251733 15.70556766504944
1.886095011687233 0.7684369957450906 15.542914045060945
1.900062310111115 -0.07957850983262171 15.664614650626913
1.8927507407898259 0.6051494021205169 15.572634682258231
1.8927507407898259 0.6051494021205169 15.572634682258231
1.9011402547598084 0.3119560158320281 15.643142406234347
1.8942367457700686 0.7001295989916406 15.580153801992559
1.8942367457700686 0.7001295989916406 15.580153801992559
1.917208215024458 -0.47887707093017845 15.780558697301048
1.926501343941572 -0.4441925737299181 15.649507493104926
1.9508218057560132 -0.8151855306798649 15.839201750341337
1.971226931242489 -0.9142114674128965 15.99492638926055
1.9354863183690934 -0.15525457876104107 15.683207100760937
1.9334444491764244 0.34788747807210124 15.660358362797838
1.9359641529420153 0.0730284583579965 15.640899219445389
1.9425792110373883 0.0028368025490691034 15.697044237801931
1.9363256905689676 -0.05400265576148487 15.627769058067683
1.9453175691185778 0.15197853953441917 15.710389626815255
1.9398372900316094 -0.055910920359568184 15.648636416203356
1.9185183506464474 0.8550149150637326 15.462083949090966
1.9630202913422667 -0.7609081266997223 15.840080808083052
1.9317006087622266 0.5972760780806917 15.552141541510542
1.9488159705890082 -0.14535215930577622 15.626494705237715
2.015176282979731 -0.885005529127093 16.01637681310376
1.982246045740407 -0.15565036235755486 15.629452084477364
1.983942056986161 -0.2394356173595075 15.615895459774856
1.983942056986161 -0.2394356173595075 15.615895459774856
1.96210893962789 0.9520394957641947 15.413443159185986
1.990021830533455 -0.2111180510585753 15.627468626054606
1.9985000293409965 -0.09896333562192937 15.638962592986934
2.00064143407476 -0.010779477461619131 15.618856149374759
1.9901152541450327 0.5473186462582431 15.487492311870927
1.9901152541450327 0.5473186462582431 15.487492311870927
2.025253933001392 -0.7640966969742072 15.767381161307886
2.008504957155235 0.14403662200522538 15.60215718601325
1.9931945759239948 1.0395980119693606 15.418313743514332
1.9984795833178013 0.7985598943989723 15.432126633124328
2.006729820864601 0.5026063069408959 15.488485137764997
2.0270008413208838 -0.555944351647729 15.647104816120448
2.0057636399098464 0.6010650369851559 15.452022988735937
2.039857072217014 -0.6896320277257965 15.723635112539295
2.039857072217014 -0.6896320277257965 15.723635112539295
2.0211339899343064 1.1089905815509706 15.42022897566185
2.046308359175467 0.048491761045162694 15.496198715634836
2.065612635916544 -0.5376591671932703 15.611793183194978
2.0786248612226577 -0.49854349117085955 15.563942204157184
2.044761304067774 1.0632186146883238 15.299433394841323
2.049145748912708 0.916965820232885 15.285320742807983
2.0734329605874153 0.2624062554147579 15.41084244178457
2.094885249359687 1.1080261772885223 15.344895800763677
2.0938261827877525 0.5035036405387505 15.320119516315538
2.1015535364824536 0.7322799967389572 15.295237439135274
2.099077982504135 0.7843156008615063 15.269615212874356
2.1339594227382896 1.1890493418919459 15.369714918769679
2.169420459982647 -0.5909787115963988 15.530933700406177
2.1613173955988767 1.0746547419735812 15.239666180583598
2.1761043688730135 0.6667909756231348 15.307205599627457
2.1508551577849446 1.0731003513715196 15.14052397082618
2.186447096253947 0.3208383922651654 15.370502303762077
2.194664459557736 0.033196175872151144 15.427344023292692
2.211648288587037 0.5608318120650584 15.33060114499381
2.197241185513151 1.0330684492599134 15.213497334306789
2.208706710842986 0.9590661463119622 15.237711812685044
2.2673846230601495 1.1782887869314094 15.32397256089194
2.301042614196728 0.9755894325879483 15.346470512451985
2.404150141413185 0.5789147525164317 15.552450343151259
2.4543207333076595 1.0061129892542497 15.766307541486347
-0.8324466404169242 0.29906314895282765 7.851208300887219
-0.8442583176407629 0.1207753507373932 7.984206596982837
-0.8232746317916415 0.36821295772971757 7.798950634865523
-0.8378266699420858 0.15693777043297255 7.955446040228123
-0.8356234135892677 0.05848980646310941 8.013803044471606
-0.8391528190203174 -0.0954428783530875 8.131543169303804
-0.8073192066651693 0.3256333611168514 7.830567928728883
-0.8405332724820889 -0.144344170728252 8.170402268771467
-0.8408065877999679 -0.1930555875324264 8.196351087188553
-0.849712315461411 -0.3704250840875394 8.316820239651452
-0.8411124905481813 -0.24315100842815557 8.231676324419224
-0.8411301566465019 -0.28226902359097283 8.241956954573135
-0.8772284672402619 -0.8415903976535224 8.627493180469276
-0.8510205249296522 -0.40983620230770784 8.352636326417258
-0.855505094442153 -0.4758280066871308 8.403178260309653
-0.8067372097200423 0.20715815020369385 7.913189355241954
-0.851079729263864 -0.44346436183065807 8.364896151930273
-0.8217358618445166 0.005265753506932259 8.068336786605924
-0.8434289521169647 -0.32428972410292106 8.303240864059259
-0.8478128933720093 -0.5451588656602487 8.42717395557724
-0.850437799560236 -0.6022350641477081 8.46215077453783
-0.807148317275986 0.016221277115844604 8.059377369193367
-0.7779808061110408 0.42007357635892956 7.766656280390763
-0.7783744066380891 0.4006959895092298 7.778933141095097
-0.7783744066380891 0.4006959895092298 7.778933141095097
-0.8416409503971725 -0.5764493112682959 8.44823159687677
-0.8416409503971725 -0.5764493112682959 8.44823159687677
-0.7882307210423501 0.22061127259277263 7.904504321228296
-0.8491020718008019 -0.7951408746651627 8.591847303168766
-0.8494716160784317 -0.7980451594239218 8.606112477367166
-0.8133696380579426 -0.2558291055544452 8.237918066924404
-0.8021624670876771 -0.16949674491584693 8.181497816138545
-0.7954241007834646 -0.14829316128179726 8.153656641165986
-0.8195482924854713 -0.5759747821905477 8.443033196753152
-0.8195482924854713 -0.5759747821905477 8.443033196753152
-0.821713230363707 -0.6512263456188075 8.488168236338868
-0.8043796897459259 -0.3802613258288545 8.30903208432392
-0.7933341112336467 -0.1890672263948142 8.188429754866164
-0.8008082878555776 -0.3366744751189587 8.295881649433618
-0.812770506291165 -0.7056067802526736 8.527372412205668
-0.7911308972597572 -0.4749666067093383 8.376213416772922
-0.8013471343825613 -0.6150807295069254 8.491045800311257
-0.8029337724821886 -0.7023356313610196 8.525990613996058
-0.7525117868560592 0.2326839360070314 7.968681569151173
-0.8180769669626138 -0.893969719854397 8.729741086904285
-0.7559913569265164 0.1364808293317132 8.035567379518382
-0.7559913569265164 0.1364808293317132 8.035567379518382
-0.7962373512596642 -0.8552269040135257 8.688552881501673
-0.7454682650658354 -0.07432424204096291 8.186143475647883
-0.7832117707995669 -0.7962480420646423 8.660856441370408
-0.753039941394931 -0.2579638759230444 8.317351693730593
-0.7261200234789165 0.1342029440936058 8.040899250204792
-0.7654321039666826 -0.6162473366397241 8.548689421559747
-0.6868862383783153 0.3258792512089287 7.9054322265867425
-0.7295089777732996 -0.4514948100103118 8.435891416358535
-0.7295089777732996 -0.4514948100103118 8.435891416358535
-0.6949509404825345 0.15280688519637464 8.028602199713456
-0.6949509404825345 0.15280688519637464 8.028602199713456
-0.716590193550879 -0.2792892005794312 8.318174984132005
-0.7161326954007693 -0.24992678684829212 8.304798511054212
-0.7040116991397277 -0.0639651088903008 8.177607539825889
-0.7040116991397277 -0.0639651088903008 8.177607539825889
-0.6822757813644142 0.3035452592042418 7.913660736596537
-0.7289712873822698 -0.6155035663076788 8.542661285347652
-0.6852297036355164 0.12839674085077893 8.048354883263961
-0.6852297036355164 0.12839674085077893 8.048354883263961
-0.6841103981327383 0.079810238135443 8.074236067189519
-0.6045935556268293 -0.357331902692158 7.206448151425946
-0.7201119557382257 -0.8327136964012564 8.669175494396724
-0.7201119557382257 -0.8327136964012564 8.669175494396724
-0.7099851045436367 -0.6069129331961076 8.562096103875716
-0.7104477934844734 -0.7953635704859052 8.659003700845117
-0.6783335928102838 -0.39673705875677007 8.474337760113986
-0.6557520489257807 0.053129361877135774 8.193827723917265
-0.6557520489257807 0.053129361877135774 8.193827723917265
-0.6821179553502055 -0.606146431118732 8.59060090741451
-0.6807995290156466 -0.5326198171667915 8.580843371372199
-0.6592684241545942 -0.12481891473100921 8.31113770041267
-0.6839819623661718 -0.6616532876656406 8.652517107833885
-0.6818849423093424 -0.7372584317480199 8.706368178839488
-0.6794909432813148 -0.7975938649937757 8.712719628448752
-0.6384568373369833 0.036287670058680124 8.206958161605243
-0.6539688439961143 -0.37349148234491064 8.459652648882424
-0.6624485216422883 -0.5568892602474427 8.575585315746833
-0.6629806832203505 -0.5610457478083802 8.59933386208608
-0.6740180969460509 -0.8871721905911474 8.7938821606232
-0.6328644031794676 -0.005369642362149591 8.223887276757111
-0.6248019944654571 0.053786637737614086 8.187056100631452
-0.6125051358766312 0.039358396274004726 8.195268011423874
-0.6201796076268683 -0.13626917618870485 8.321956628674291
-0.6201796076268683 -0.13626917618870485 8.321956628674291
-0.6075943131044438 0.10144310936740893 8.145748596198949
-0.60749275365646 0.07421334564820405 8.166852338093346
-0.5968494896445977 0.2581469882866819 8.037768599167725
-0.5968494896445977 0.2581469882866819 8.037768599167725
-0.5947501198904712 0.1374616665043359 8.118249002593451
-0.6170269077129283 -0.3461701077345333 8.449095126596458
-0.6150673117968004 -0.3809578989124553 8.46122691951263
-0.6030140120217795 -0.12074168198365236 8.309217713863987
-0.6025965235028345 -0.1605995663081295 8.335168908077648
-0.6332889583410645 -0.9190335444370948 8.799287225715446
-0.6227348066156262 -0.7257368288133978 8.679567153036974
-0.6028545604045824 -0.4035258937146806 8.481637783484308
-0.6028545604045824 -0.4035258937146806 8.481637783484308
-0.5694879505273981 0.3233095573765685 7.989513719612658
-0.5883002665080144 -0.14400435759349625 8.327380805299558
-0.5941162137676593 -0.3691071251992773 8.467890378470322
-0.5884688605954458 -0.2883993140207105 8.43106414013782
-0.5884688605954458 -0.2883993140207105 8.43106414013782
-0.5779230455963971 -0.15889603755170667 8.331962796904984
-0.6055765154433413 -0.8764497533684941 8.788272971376209
-0.5946236267184017 -0.6013506258774654 8.627607460484708
-0.5963453109719921 -0.6961507661198761 8.682824757931588
-0.5427090538653457 0.3537435786921839 8.036725175044735
-0.5419538802659088 0.2860153429464519 8.09743438873481
-0.55264983234058 0.03125025646056121 8.28238848141705
-0.5416802578651971 0.2507327563847425 8.124164761744327
-0.5521990495989416 -0.06400178965209384 8.353653924642975
-0.5643303334546625 -0.5787433391349827 8.67953419957638
-0.5594611854008863 -0.49200785545196385 8.62000877535706
-0.5497470550893304 -0.2556983131376151 8.473013752563553
-0.5651791809849187 -0.6849114242877206 8.736711149636522
-0.5233418974800768 0.30225928260480156 8.079893944220224
-0.5233418974800768 0.30225928260480156 8.079893944220224
-0.5135604234231214 0.3638356072975266 8.03485911853407
-0.5324268906629396 -0.21115685183618862 8.439674549780415
-0.5431669089821777 -0.5914123735717652 8.681527400144114
-0.5171168681595018 -0.003134318985872002 8.30526747484639
-0.5361349578039153 -0.6182811604157752 8.7011670247796
-0.5143952343979508 -0.4171747916561727 8.570988322997492
-0.5230450679980335 -0.7619676811851643 8.773987136750343
-0.48839622480154105 0.11490321991879049 8.210134184112373
-0.5169831654413457 -0.9106002215554062 8.869203202138793
-0.4831073168154585 0.08127511103493568 8.247696266433532
-0.5122855241232214 -0.8015146330850162 8.801771560673279
-0.5029759597154728 -0.7811346907971459 8.793787883253563
-0.47935537074350437 -0.19521837197485786 8.444259531777297
-0.4931959124810694 -0.7633759247672086 8.779445935466581
-0.475590872653475 -0.48745872659450373 8.701943583012277
-0.4668679897607073 -0.6970059826851256 8.81861751098272
-0.46231220967874564 -0.7361355278174466 8.806864688584016
-0.44429346726281876 -0.13141850454127244 8.481154479035553
-0.4552307078379968 -0.6406943455225456 8.804387366419997
-0.45250445701073755 -0.4800002587366246 8.751429104576747
-0.4336977782157623 0.16025558925777783 8.341064472700433
-0.43605121616104936 -0.18541359386339648 8.474729860948441
-0.4402910829668228 -0.29056751545068843 8.572517227092108
-0.42172734311911153 0.23540121241027928 8.182844299224245
-0.4490840204253074 -0.6069187157699586 8.82560996482181
-0.4473526641131553 -0.7153580003043204 8.80381861912953
-0.45385284266500237 -0.8610575750843755 8.930541659423065
-0.4351033140123179 -0.45650598027495753 8.841844655857239
-0.43201588220712517 -0.6534817802668945 8.78744257598931
-0.39835930315879864 0.3252396732334133 8.166664700141583
-0.39480607536676293 0.2899222587232804 8.150729518589555
-0.4061321154188388 -0.14961917973984185 8.47391126715738
-0.42190203252540065 -0.5164169292769171 8.846808122567557
-0.4145454706767591 -0.7412277037127815 8.815866087292457
-0.3863223535417288 0.2166669092448674 8.223175050420208
-0.4092024644043081 -0.6658362790245318 8.797897092623767
-0.3795462425886032 0.23513469005983492 8.1875831900963
-0.3795462425886032 0.23513469005983492 8.1875831900963
-0.39350988993414066 -0.3122157783266011 8.599265551101672
-0.38077534402030866 0.12485296974117367 8.519524518137503
-0.3659842989898573 -0.18524144349938113 8.469476865072068
-0.36940703692992 -0.6218029395172984 8.848128832617379
-0.3489300207444908 -0.2118421126464923 8.477197991034359
-0.3551314609398466 -0.6340036703871731 8.816451295819252
-0.3394362058528797 -0.16981619692800462 8.457354579883694
-0.3503275056405779 -0.6860040945712462 8.788715116110625
-0.3503275056405779 -0.6860040945712462 8.788715116110625
-0.3206888634033286 0.2852861465516049 8.14491335450939
-0.3206888634033286 0.2852861465516049 8.14491335450939
-0.34445327122039027 -0.5658257475149319 8.855974679335821
-0.34445327122039027 -0.5658257475149319 8.855974679335821
-0.3197084835231915 -0.10692113827849958 8.4811834698081
-0.3087535607994727 -0.18587006191215902 8.460426936475127
-0.29763735673205405 -0.1357732209857262 8.457974447013182
-0.29763735673205405 -0.1357732209857262 8.457974447013182
-0.29335080725106116 -0.11827928329728858 8.478892942283197
-0.2852066504855861 -0.16151320232133434 8.454788511577384
-0.2852066504855861 -0.16151320232133434 8.454788511577384
-0.28750903127174204 -0.6638538749943445 8.769144705698684
-0.2592707504070374 -0.13540225671885592 8.452072441059057
-0.25807861229843065 -0.1862014188828285 8.451317035863681
-0.24919019768754963 0.20600902202531782 8.215572247818304
-0.2542767976170083 -0.15962893398557285 8.452214564163272
-0.2568833322067444 -0.6610778100256848 8.770564158506385
-0.24170781505154856 0.2353246382137837 8.172020484004566
-0.24130123316260163 -0.11874267111294977 8.460557614708602
-0.22413681049753872 -0.23530993078072046 8.475608319556521
-0.21828783573836402 -0.6640278033551167 8.75926754528601
-0.20363011449009374 -0.11690918024378934 8.45712409735649
-0.20385150699945423 -0.1955923790853587 8.452858631755895
-0.20385150699945423 -0.1955923790853587 8.452858631755895
-0.20295588593579258 -0.13555064371518089 8.446566070654171
-0.19442109134694227 -0.24265784069489743 8.481414406546808
-0.19442109134694227 -0.24265784069489743 8.481414406546808
-0.19485419837669865 -0.29034167060445754 8.5287075284553
-0.18084892179862166 0.2378871758699831 8.162550987830837
-0.17395676771007165 -0.20195974795145943 8.446895344251786
-0.17944202521263944 -0.6401550446340316 8.848348853948199
-0.15958547212509774 -0.16295296417873326 8.437566030430297
-0.1641082933986401 -0.7775481893004044 8.78689811404447
-0.1641082933986401 -0.7775481893004044 8.78689811404447
-0.1602482361198942 -0.7083392285770438 8.763945660565069
-0.15356067582564134 -0.2138391345135889 8.44954502677203
-0.15380082788935934 -0.7620831076871566 8.78202395849226
-0.14583938256995432 0.2635039830285562 8.146789627988563
-0.1410716415774236 0.3065791475676635 8.132322557538677
-0.14470369015567563 -0.7244541598153947 8.769907675378281
-0.14084265843404742 -0.6913011041261268 8.761482103120475
-0.13614254313032823 -0.7464846012303044 8.774256942020761
-0.12655862886990335 -0.7107384118167581 8.756827557737589
-0.105932537979982 -0.6875520517569764 8.745981805976133
-0.10036870240974666 0.2644246904874865 8.148495093601419
-0.09334653085968012 0.2143725509762586 8.208630074494705
-0.09059589240780085 0.2383304324055239 8.182062985532884
-0.09040947452983046 -0.7179730993608799 8.743901499650157
-0.08344599584346847 0.2853965084958255 8.134093803709467
-0.07490689385424983 -0.2390571013097063 8.44884249689767
-0.06674008383773561 -0.7459427337140172 8.749316918956632
-0.061561602788700064 -0.6374116744250433 8.810052027747723
-0.05825819047479876 -0.21333079712355613 8.433520918515923
-0.05793961387773674 -0.28794172933457 8.4992965466352
-0.05171773336358373 -0.7172178176815399 8.739165847025818
-0.05100301956096264 0.24035987615113008 8.152732014561096
-0.05060984407634461 0.29121771532583096 8.123317029676066
-0.05060984407634461 0.29121771532583096 8.123317029676066
-0.047354625658156 -0.1598489240924086 8.417506479810154
-0.03730236948220061 -0.6653282692645593 8.73238238443923
-0.034495355956811406 -0.2390972580266734 8.435518074627298
-0.02772918331021249 -0.6474547314133532 8.725756259042972
-0.027766114898158955 -0.6878476426082955 8.73005432110598
-0.02680078225662333 -0.18667378401507714 8.41674455844694
-0.009594718113024394 -0.6667427336155851 8.732406685288703
0.0031302063486936967 -0.21368069429858455 8.425401074523023
0.03295179095505714 0.3097851579278925 8.467809296849342
0.07270044418803641 -0.19025683149790884 8.400568738580088
0.08140879991377242 -0.13876163244782858 8.404968142821676
0.10867823049640013 -0.27945757218992584 8.462281735862117
0.11150841545832937 -0.23518207596062793 8.421015782014981
0.11595245199377475 -0.20824910326222804 8.417169005585666
0.11924625532709117 0.20012265878761984 8.193553739729836
0.1270656156170033 -0.16460258223109528 8.403718314258674
0.13746179949091478 -0.2574529153009964 8.441366653821703
0.13649343072884182 0.24899862343005097 8.147275525217932
0.14022958087040094 0.21995340369896635 8.160431772906419
0.15160423360669664 -0.18861816975231094 8.396797619858107
0.16314346362423135 -0.6363737170593043 8.733195846380816
0.15179123557106328 0.19695093482105866 8.205722688277248
0.1577640043042258 -0.27690410603641596 8.455492758294719
0.16599883876195376 0.28482882319599506 8.118573523399727
0.17455782586678323 -0.11379312249077211 8.446768595857469
0.16857446872420503 0.2503700337468685 8.13515255695349
0.18556410336906287 -0.7797128858407637 8.720913666587215
0.17258419132919472 0.21449254368252024 8.187248589878507
0.17722395874068356 0.3226884813185569 8.11767741428884
0.1992577845591683 -0.7152452634960842 8.688754841658385
0.19461127327762856 -0.15364237659122623 8.410457363170792
0.1967520948042136 0.29282432324540847 8.103474144751624
0.20151332720193912 0.2728785113184843 8.113890850501836
0.24087397904866084 -0.7797263049324701 8.704678565554723
0.23129483765528272 -0.1420227512551673 8.380322768243778
0.23323805223971408 -0.1676623142907206 8.393116417343778
0.25053938723715813 -0.7470469881300748 8.684775464871118
0.2532455429861973 -0.7195658571908161 8.677230333488636
0.25213464308082556 -0.2349910396024678 8.410351003037265
0.26316308508652225 -0.8061282066422221 8.731796707190506
0.25526870422478215 -0.19418790345279066 8.389494248835007
0.2680949300891671 0.31503939722652496 8.10833418734709
0.2808792527135955 -0.18961321669988848 8.381199326115803
0.3066054388808601 -0.21318063787038063 8.39183544831198
0.3155752074507271 -0.23679408680801858 8.403575219615565
0.3174851118981714 -0.19107259542640417 8.381973910225797
0.3455041693913619 -0.16800762720711565 8.372201826173866
0.3455041693913619 -0.16800762720711565 8.372201826173866
0.3941946940796941 -0.7724149225163177 8.680988978326697
0.37043549919229973 0.25001066942365413 8.108527217055023
0.39278832141893394 -0.23476135223606068 8.384239074776444
0.40690300947948416 -0.10762158177075144 8.427269601572432
0.42217062335592004 -0.7413143812837151 8.662506632011455
0.4247237196011677 -0.6435803466607736 8.683588795482468
0.4247237196011677 -0.6435803466607736 8.683588795482468
0.40904724084527955 -0.16268978522229494 8.373026423061907
0.40904724084527955 -0.16268978522229494 8.373026423061907
0.45314930440758616 -0.9197541940945361 8.799839456485856
0.4568804001282108 -0.6842181464860184 8.637605801438607
0.4596248070718949 -0.6410463038636519 8.664674999425117
0.44544761553779183 -0.23498750905473229 8.385993267834412
0.4459914920292897 -0.18474348322237497 8.361030094520798
0.4631979342137087 -0.7135280379780647 8.643704139514183
0.4665153744662005 -0.7699276232861484 8.661564956899507
0.43477869606553 0.2938887686581667 8.078525596666575
0.4725058351131923 -0.667716441244315 8.64606989656726
0.4596785059745478 -0.14010676544954168 8.364215785581184
0.46355627584379155 -0.25561581694807073 8.398414893616124
0.46487339166563046 -0.21320440593151296 8.372184427764815
0.48224684289889763 -0.7437913620290755 8.645710583051473
0.48224684289889763 -0.7437913620290755 8.645710583051473
0.4644731962805395 -0.16215026156793982 8.359886340031963
0.4816096003263632 -0.6851932085705892 8.632822927234322
0.4555467117530036 0.22267598958543464 8.137172573542673
0.4532118348117705 0.27684164696272173 8.07789378131427
0.45449990932573936 0.3275934660912998 8.085464196944258
0.45449990932573936 0.3275934660912998 8.085464196944258
0.49262261939664787 -0.31721378780585646 8.484906618277243
0.4828277165692229 -0.16276977760774664 8.295098074575183
0.4719929203357156 0.2956836155467294 8.06654816136405
0.5017241107121666 -0.11894075229193658 8.387575625944674
0.5115043441947453 -0.15705039410295868 8.330570470087164
0.5045094697737539 0.2095721069263863 8.116277470404341
0.5025042355593895 0.2684117595022495 8.04367089589135
0.5342583910224032 -0.3334530002793017 8.482128461109701
0.5485258896094696 -0.8103433785300741 8.612272592932676
0.531492974430524 -0.08661288051446143 8.366129426683175
0.5312776019729439 0.15593985755773215 8.222477146179466
0.5200383659446519 0.32628825762608116 8.023905261036454
0.543237615650831 -0.17654660056083743 8.303062670024676
0.5622072294767112 -0.6092415152384768 8.539013191582047
0.5465329448767231 -0.14096862731774304 8.306000948455853
0.544839862860407 -0.11709855595322786 8.282790038369999
0.5757598544800959 -0.8274669963446947 8.613589298469867
0.5318099271490081 0.3097554550891027 8.019002504296488
0.5613924305550337 -0.29689686088252093 8.35774023641955
0.5411617106800706 0.19717429868640493 8.087546120792343
0.5613898875227448 -0.10394600320727544 8.255257673241541
0.5627665314543098 -0.1632048672658904 8.27567431769825
0.5625104083291556 -0.07968813132775182 8.26218896128432
0.5849037982993374 -0.3514528471630466 8.379111488656235
0.5789567680462012 -0.2035346013393079 8.298002397737802
0.5660505478866928 0.15418352911578675 8.120364419324558
0.5925159822566998 -0.33723491331897243 8.378132383659464
0.5820847348347978 0.18859999845539963 8.102003388027244
0.5991769144422578 -0.1198515454069555 8.255684395414129
0.6091696458213008 -0.24626827044847685 8.342344042049229
0.5898958021700235 0.1564639026652077 8.095664252879553
0.6201709686334995 -0.10300754055949748 8.291994493207676
0.6330086491025446 -0.33405064517153443 8.393340802505575
0.6278617693065713 -0.17375988054434377 8.328554353893793
0.6314221102134093 -0.2333903794707351 8.355552678036524
0.650586277039437 -0.2452433375735618 8.35479251438548
0.6797263893313413 -0.18859761769689357 8.32579201523049
0.7449798577525487 -0.7144005458671336 8.579599871078493
0.7103157902270105 0.06083930195952402 8.194033848004333
0.7318296662373759 -0.1526935077424717 8.287902310412179
0.7318296662373759 -0.1526935077424717 8.287902310412179
0.7040246182706934 0.3200202440483754 7.996820154768449
0.7453442486846302 -0.4012511686059892 8.408403170397358
0.7453442486846302 -0.4012511686059892 8.408403170397358
0.7372588128238955 -0.1950312306855804 8.31018058263145
0.7150976724817664 0.2763382161494225 8.048973162323772
0.7291130425480685 0.08757047053968892 8.149678886898688
0.7409908468540404 -0.10870978507993091 8.269881394554766
0.7336721117507924 0.05185262256631157 8.189092182867448
0.7380113320711369 0.008863582575099069 8.210184936739083
0.7279274184511985 0.19731370842265133 8.102094492782193
0.7190546551358641 0.3046489162243754 8.006791632716377
0.7263628565392612 0.24724648782658817 8.073233315349393
0.7540862920299375 -0.24827395818601408 8.352804067546568
0.759370212374119 -0.3443776495509005 8.386868684453033
0.7295065883959854 0.2614934250150617 8.0500300319911
0.7543405438510786 -0.18650021612471962 8.291388190011759
0.7648203227930603 -0.39683726578325657 8.398679448512592
0.7413283173116156 0.10612348764398997 8.138933592238757
0.7413283173116156 0.10612348764398997 8.138933592238757
0.7609844752716787 -0.22418334661644215 8.325573621420412
0.7660072496760912 -0.3576585519401846 8.383086017782317
0.7561012446199165 -0.1471473153415945 8.27233710550074
0.7461589915838579 0.06801172583639266 8.167582635595743
0.7748385033031387 -0.4697626275539904 8.446342777939762
0.7433313144322626 0.15085068670350865 8.118904145017725
0.7766590891911059 -0.41938840363168783 8.409751929512952
0.7766590891911059 -0.41938840363168783 8.409751929512952
0.7761382302496953 -0.38018507098417836 8.397410750594384
0.7768351847496633 -0.2590969750460472 8.373088389235942
0.7746891007873786 -0.2775960563156833 8.344736243602656
0.7513566245625918 0.17005107028038569 8.101084336679211
0.7694177968319739 -0.12244450585053614 8.274945179875909
0.7543085787995628 0.12477477312202759 8.125629399061914
0.7543085787995628 0.12477477312202759 8.125629399061914
0.7570707642159137 0.08675579967804727 8.152417070088855
0.7675697850834701 -0.07974574785394006 8.251514707730367
0.7795880565963187 -0.3443686570583414 8.370738149942348
0.7566064743424831 0.24958385485356907 8.13645356431329
0.7522826776516248 0.1995794665121402 8.058751930605286
0.777042612948354 -0.16404014682766999 8.269875399138336
0.7760985356135759 -0.13875752983412312 8.256771532671186
0.7988277340612294 -0.5146441222425393 8.457814908191601
0.8017774017718543 -0.48862211963060465 8.427782773083209
0.8017774017718543 -0.48862211963060465 8.427782773083209
0.7676368625989917 0.18177990428781732 8.069622039557093
0.7810405394415743 0.016711875455217556 8.191398812961843
0.7810405394415743 0.016711875455217556 8.191398812961843
0.7810405394415743 0.016711875455217556 8.191398812961843
0.7976588531735762 -0.22667014531838167 8.300570953333738
0.7969880408827633 -0.03541969726980321 8.197004116705035
0.8188426019273298 -0.4655226368389615 8.405251793535646
0.8223771924052404 -0.4282651365419102 8.375810956690799
0.8446390082395127 -0.6652059419792409 8.598607301357205
0.7898380785785056 0.20204346208389087 8.059872298927448
0.8300980476410001 -0.2728836682688397 8.355324038259162
0.8339315511286771 -0.25538608577753974 8.356951913559703
0.8364541516345307 -0.32946363646574317 8.375578805606967
0.818971714171123 0.0025978455372253724 8.210312950329138
0.7997170781081856 0.32227477382098874 7.987533631205498
0.8143362491418196 0.1724897170139435 8.108024343175993
0.8387614810398589 -0.2173159734926871 8.320055708307223
0.8137769949542473 0.2712414754064617 8.032091945562646
0.8481717152388485 -0.23929744340404058 8.331864558667487
0.8296106610540183 0.0736391738611482 8.15130450911879
0.8296106610540183 0.0736391738611482 8.15130450911879
0.8405373833737346 0.0014858564131527516 8.216323760819023
0.836744975553465 0.08995130471404078 8.138470022914888
0.8722266444898837 -0.4183560464521478 8.39424832184097
0.8722266444898837 -0.4183560464521478 8.39424832184097
0.8493381138198389 0.02177666032089356 8.193650897296333
0.8599147882277943 -0.19321506936218663 8.286987602880465
0.8523140772210914 0.07649803279246309 8.147131365290742
0.8523140772210914 0.07649803279246309 8.147131365290742
0.8687107413194302 -0.015311495099209711 8.21289097223892
0.8607067088058514 0.10270258703040612 8.13086893961117
0.8536647141118656 0.24105191026714398 8.060560023633668
0.8792507169427382 -0.10230999369529584 8.250077919589154
0.8675553517744463 0.14238636394317755 8.08817863812934
0.8679687272385062 0.2546669359635481 8.053262542170476
0.9077576174017068 -0.3859546069283726 8.353163251613962
0.9099607521724253 -0.3492766937023689 8.364255801078775
0.9099607521724253 -0.3492766937023689 8.364255801078775
0.8769813760623659 0.23831556282729874 8.067359334865278
0.8769813760623659 0.23831556282729874 8.067359334865278
0.899733989745745 -0.021634226606457214 8.223784962715776
0.8763988392862099 0.34710374630085 7.971430141621404
0.9220939206676182 -0.3143174169488197 8.353063026609426
0.9464331451313939 -0.3706385173418655 8.357118443283758
0.9396822168050604 -0.2410196589139477 8.302167830960906
0.9101415400155974 0.24848217746648418 8.047905190496275
0.9101415400155974 0.24848217746648418 8.047905190496275
0.9203647313133311 0.15194638622466242 8.102745277216268
0.9438691708788414 -0.19382973534606185 8.279663966987012
0.949069615408834 -0.23739927979643424 8.31838999337575
0.9409068531237056 -0.10274948001520336 8.24335316977941
0.9279043504026616 0.10053581923326303 8.126697789064837
0.9123135520762954 0.3059911733530476 7.996950368852721
0.9134810211738607 0.3482350779691418 7.96845640891611
0.9134810211738607 0.3482350779691418 7.96845640891611
0.9443940897788532 0.010552962323071577 8.195406010200411
0.9330282132302159 0.1915027916129864 8.092103842886404
0.9275696791618133 0.2637819901191002 8.046574246023857
0.9616986776935684 -0.21531543880434972 8.294469413170392
0.9759841046921697 -0.46736046652927365 8.41113879926227
0.9506154206361277 0.0291900346794677 8.177761620007526
0.9635032107369655 -0.12943971870893206 8.252173724641278
0.927680003550138 0.36712462827941633 7.956713334040995
0.9474331864998304 0.12524860177473526 8.107327158190081
0.9631252526266155 -0.004726667590646963 8.21661644863148
0.9464537375260741 0.20173276250046474 8.072874386516373
0.9464537375260741 0.20173276250046474 8.072874386516373
0.9631327719195436 -0.052092921128288346 8.194491455251399
0.9631327719195436 -0.052092921128288346 8.194491455251399
0.9479502596623226 0.24688566144601365 8.032851655444288
0.9479502596623226 0.24688566144601365 8.032851655444288
0.9430381892988424 0.31048259526647637 7.98247789026346
0.966948182652998 0.090743334642969 8.117974108466663
0.9928332312689299 -0.3602291977175917 8.322743025090096
0.9904073031997962 -0.27814014167855405 8.298743731073097
0.9931507582781353 -0.33007183632512743 8.313617752387318
0.9857339564309433 -0.1234346624691589 8.227645379754128
0.9843341518258172 -0.07542770227671786 8.200842266693806
0.9783583569063319 0.035075339361087664 8.151834093143387
0.9783583569063319 0.035075339361087664 8.151834093143387
0.9647444872316874 0.22475924805989023 8.03605341655902
0.9544494080530279 0.3315689270506216 7.950137807525593
0.9535235733340651 0.332109161514558 7.942949245090844
0.9934472235252573 -0.15950505621410663 8.250664588408124
0.9645952313422029 0.29317182606075454 7.996535403823622
0.9674168505087322 0.2544388681754301 8.018939815988409
1.0230583112230371 -0.5137144657948929 8.416085217521417
0.9957479472896598 0.0870252134819253 8.128582662107307
1.011788709469084 -0.20150813688996752 8.254970369026054
0.9807518530182708 0.26568398786581243 8.007059214508669
0.9807518530182708 0.26568398786581243 8.007059214508669
0.9974915169818392 0.05447839065547951 8.133155097795862
1.0099495384243893 -0.1458503938415542 8.226337968436107
1.006979439821362 -0.08650841474763614 8.198851310354643
1.0037021829388362 -0.062305977819876665 8.16337069220747
0.9919944611282702 0.11529243758652741 8.068835994304814
1.002125970348192 -0.021690539205983034 8.140446495052606
0.9906793971209643 0.1513093790374452 8.053219096024911
1.0262394175161387 -0.38454517102624014 8.321382091476405
1.0280555793394832 -0.23140702828158702 8.241692468148852
1.0478373362735514 -0.4897368720046228 8.380353502654776
1.0185143976884266 -0.04266540142292643 8.152649672165502
1.0230906001480575 -0.10051066679066872 8.181575743144538
0.9867465875023317 0.3610198072799915 7.903203539558275
1.0236078961606543 -0.07257653394949107 8.177447540768886
0.995442273326857 0.2792250235952122 7.956199330313224
0.995442273326857 0.2792250235952122 7.956199330313224
1.0057517143121797 0.13050584503573784 8.03068851782208
0.9932907874791129 0.3274881838532019 7.934563086509488
1.049499181837927 -0.3894867237777262 8.27647281110962
1.0307273433100241 -0.02787206734630745 8.079019027359731
1.0290174709843452 0.10981130071757267 8.020539295055684
1.0578653271019183 -0.11311263563093063 8.105414465001672
1.0661172458827495 -0.15785611744109682 8.146190272486523
1.0607135978820939 -0.14188888403049102 8.09784936960305
1.0607543299089082 -0.0826710993512353 8.071394040581849
1.059556130196647 -0.03743483691868913 8.047448759842029
1.059088010214201 0.042292546944097134 8.007170351978214
1.0494248425492012 0.2232997503593527 7.897793629889101
1.0930678168042354 -0.3248520522404909 8.206062025221401
1.0471226051593217 0.27263067427548854 7.870432132286614
1.1528967596592004 -0.020279813454992104 7.928819597247453
1.3265073911675545 -0.2785024481908847 8.353926215527268
1.2910621520068195 0.4698923942454585 7.903845031567326
1.2910621520068195 0.4698923942454585 7.903845031567326
-0.715870461466983 0.26342112173700055 6.167445327388287
-0.7123562817410645 0.16178648089460748 6.184004378142275
-0.7092262348886038 0.21593326682407404 6.169434126403174
-0.7053053407791604 0.024883251942177262 6.1801148404618695
-0.7029584925687361 0.052099968405730765 6.177612399336834
-0.6953656371444193 -0.022961170032873828 6.188653911440804
-0.6853339793836252 -0.13528438981098498 6.1952262892615915
-0.6804008919565495 0.09046674326971339 6.171531581170818
-0.6827312072878633 -0.17013496138781908 6.199954380051116
-0.6785298234180687 -0.2054413887523568 6.190524541224061
-0.6754421186608607 0.2584759478929222 6.16960504555657
-0.6739870570369575 0.242822584327368 6.168906472600008
-0.6739870570369575 0.242822584327368 6.168906472600008
-0.6722146807341995 -0.3296475352943824 6.193824046211741
-0.66744399359938 0.10118092025637533 6.172709526931696
-0.6711969429033846 -0.2962197405460816 6.207434537615337
-0.66769794798257 -0.37958831979814495 6.192663139200111
-0.6633488202867411 -0.42233849029111004 6.198020377398285
-0.659508390172241 -0.4492248735357043 6.200938758987181
-0.6569775453917162 -0.6408650996660192 6.196208998539134
-0.6569667694772936 -0.4871655642032777 6.196196034356979
-0.6520100637361993 -0.24937248805985437 6.189553484659142
-0.6515370368316747 -0.46939818835342956 6.194575778102604
-0.6515370368316747 -0.46939818835342956 6.194575778102604
-0.6495622083279234 -0.18787360902284153 6.191920921149535
-0.6471465837186883 -0.17403357612621687 6.191348803044038
-0.6421140548861305 -0.20238002888440718 6.191138477151239
-0.6405106327138982 -0.6115661027657859 6.194072818116982
-0.6474044273797228 0.3858752787377097 6.314539512279952
-0.6347323624172669 -0.46917608400093824 6.191814569265597
-0.6319625979520354 -0.5196555126369142 6.194879785316952
-0.6319625979520354 -0.5196555126369142 6.194879785316952
-0.6240456645083519 -0.44477371747334743 6.195740161476331
-0.6222762776697462 -0.40350402885560105 6.230125688189276
-0.6143709551146418 -0.5518780919449955 6.19324595840326
-0.6046881382181272 -0.24288957721831414 6.242012159268919
-0.5987985022489257 -0.6438866647642342 6.233945088930812
-0.5913882488955838 0.19116987413584427 6.2165224900518785
-0.5926409214911083 -0.6051068879763636 6.239196614543118
-0.5861469433504418 0.1731765629887455 6.214583309569194
-0.5792907767070322 -0.10397764920297252 6.236915993930324
-0.5792907767070322 -0.10397764920297252 6.236915993930324
-0.5763540681519893 0.03947138524191345 6.227824008569664
-0.5763540681519893 0.03947138524191345 6.227824008569664
-0.5767952326193546 -0.23731442511680115 6.238640341822527
-0.6317256796974096 0.5740811373411455 6.856822610788658
-0.5745334699094705 -0.4994325657845847 6.242241058231437
-0.5745334699094705 -0.4994325657845847 6.242241058231437
-0.5721679303356297 0.002279964295424141 6.225005258142941
-0.5674912696204301 -0.6920401850940245 6.2433290332833025
-0.563517312857952 -0.487011499709002 6.238932322182415
-0.5489650683763707 -0.47829265511730623 6.248848704284812
-0.5440129494413983 -0.6290608589705753 6.233865849733291
-0.5470858099603094 -0.008332445351885272 6.290588217698887
-0.5470858099603094 -0.008332445351885272 6.290588217698887
-0.5470858099603094 -0.008332445351885272 6.290588217698887
-0.5383570561289196 -0.6034145895843319 6.238550503892044
-0.5391463852207063 -0.13911500588556683 6.296750442161542
-0.5382727714781353 -0.3692484414450272 6.29669768703168
-0.5373713136867284 -0.33221732316330216 6.287048976924087
-0.5336053808086461 0.004493075586222803 6.283861396276
-0.5314958416847313 -0.020393103423671996 6.281344548000818
-0.5310821226216205 -0.15653899588457187 6.296581567525036
-0.5311054042674925 -0.4223534843039327 6.292274235516178
-0.5292271081532328 -0.4762168002027931 6.288283774189758
-0.5268642863929583 -0.5100182026262441 6.29933836650827
-0.525548551028991 -0.052173168326808135 6.291882156193462
-0.525548551028991 -0.052173168326808135 6.291882156193462
-0.5221855276818272 -0.00785644703274188 6.288585765467427
-0.5201670042770725 -0.5575828329945957 6.289038707210073
-0.5202696714886018 -0.31633925518659145 6.299796988236231
-0.5125737020197767 0.14713380531678602 6.277485769532752
-0.5125737020197767 0.14713380531678602 6.277485769532752
-0.5116326416426024 -0.018537011465786426 6.288020829320986
-0.5093090721464338 0.007146355271950956 6.281665007435805
-0.507357321802401 -0.14638851024825722 6.297974902310712
-0.507357321802401 -0.14638851024825722 6.297974902310712
-0.5079107932079098 -0.6562530269977065 6.307148819166179
-0.5079107932079098 -0.6562530269977065 6.307148819166179
-0.49294260038079185 0.19803794325048119 6.268621962427522
-0.49463065199097256 -0.13504114645319007 6.291798515911683
-0.49316500970470034 0.12666354641955196 6.280033948904398
-0.49344080200047846 -0.2957530817343502 6.295216281775969
-0.49197306304006905 -0.16378880045533004 6.2945687932056655
-0.4905264469119833 -0.3209973954894133 6.293472017572254
-0.48192502621588984 -0.15138508028491407 6.297322597338534
-0.4770637193493437 -0.5516341692976418 6.285199633291427
-0.4735890857480994 -0.2530067586953297 6.302500374132059
-0.4735890857480994 -0.2530067586953297 6.302500374132059
-0.4735611142281332 0.22858478190453002 6.325408877718693
-0.46803346669716084 0.17611956317823604 6.319257449972617
-0.4660238620463742 0.14914410705786252 6.32761369273072
-0.46561145651191443 0.26548123678905583 6.32248733579817
-0.4644888539943122 0.036492121515847936 6.338730202489801
-0.46181140131995535 -0.4665565673241713 6.295955622930439
-0.46275255348947564 -0.016422010174448005 6.343112778883375
-0.45991730413149967 -0.5307991098579454 6.309481239959805
-0.45677589598397617 -0.6467267610399011 6.293540491380436
-0.45752735266884664 -0.08584308456623772 6.3486108201678375
-0.453669557117839 0.18864323454373175 6.317618423105793
-0.4453781463713103 -0.22377284607308312 6.344000357635973
-0.4453781463713103 -0.22377284607308312 6.344000357635973
-0.4423354495442491 -0.38870489864447916 6.360349635637786
-0.4404593075612709 -0.4457029271601441 6.347733772571936
-0.43449522519720646 -0.5147880759937415 6.316688321370206
-0.4238916064006049 -0.4544142199446878 6.344856500592711
-0.4170394140322102 -0.049728332759891136 6.336768199118803
-0.4151057818701272 0.045863929042500466 6.330059791262182
-0.4099810821079443 -0.3360026526032467 6.341500782415568
-0.40121091807246567 -0.5672884958013082 6.334637096426325
-0.4352677558567332 0.4324805842377173 6.902998160137918
-0.39846871884643603 -0.20776182567208853 6.344524812840765
-0.39245997489170237 -0.1790046944643547 6.360479876466792
-0.3909455225177208 -0.5915821568117091 6.328597988849264
-0.39012613247527383 -0.6614175837124876 6.331013421838837
-0.3852089188124201 -0.5782012508730215 6.3348734316816335
-0.37859911778584066 -0.5670480821951049 6.334866827360508
-0.37903062073106664 -0.4257302634368647 6.3906954864497845
-0.36663448846579083 0.1434432021831481 6.361471830069329
-0.3654259544236699 -0.6350654583672949 6.3660435405008
-0.3615154235978682 -0.5158842679473994 6.382822314320243
-0.3615154235978682 -0.5158842679473994 6.382822314320243
-0.359740074408174 -0.16786534374613554 6.375366545368582
-0.3586386454406753 -0.23957069615191082 6.392517205798674
-0.35531892299395146 -0.5441875505869179 6.355587049707509
-0.3590771040995156 -0.365193420137367 6.431894143545896
-0.355236299599193 -0.47766675097532646 6.40807034509208
-0.35112157363790586 0.21725562878724317 6.3835131111064145
-0.35112157363790586 0.21725562878724317 6.3835131111064145
-0.35159145882845183 -0.45097578189285265 6.429736841373507
-0.3462134667990424 -0.3378729503387581 6.465894492968086
-0.33704319965233565 0.13171411017983858 6.370644074809389
-0.33854645917768733 -0.4879051769196286 6.390005038194672
-0.33478208602915377 -0.38205600626250247 6.462869844054591
-0.3289144083737191 -0.12450716811894329 6.396504390443457
-0.32335854798961383 0.22035104901205171 6.37213612225782
-0.3197330439165266 -0.49494544786279593 6.38632804445398
-0.3147318485493307 0.18094884045415405 6.367205101722223
-0.3147318485493307 0.18094884045415405 6.367205101722223
-0.29998130887383195 0.1410087427952973 6.355723863593588
-0.290231115452208 -0.18646265975379353 6.364268757720012
-0.2909208825564861 -0.45828066870407436 6.437046661164026
-0.2858985870730837 0.18325757270395 6.352784513399357
-0.2858985870730837 0.18325757270395 6.352784513399357
-0.2846948140959594 -0.15585424421249192 6.375318651734834
-0.28134465305802764 -0.469572408639147 6.409901592581607
-0.2749044480007626 -0.5089419528830826 6.369406279201296
-0.2749044480007626 -0.5089419528830826 6.369406279201296
-0.26043509492460065 -0.16735278608633622 6.36422613785117
-0.2518659910346375 -0.12842755131742323 6.378126047576246
-0.2518659910346375 -0.12842755131742323 6.378126047576246
-0.24569496199562962 -0.5095291687233311 6.367090005333759
-0.24232424402606723 -0.1487242871591623 6.374078006425062
-0.24232424402606723 -0.1487242871591623 6.374078006425062
-0.22807785931398813 -0.49410183371394634 6.3685835608738905
-0.22401261011828041 0.12479867235451932 6.36834901167018
-0.22287416158011572 -0.12812778318595866 6.37662465724937
-0.21952333112149267 0.14524218128692024 6.3489972935374706
-0.22004254900305378 -0.16759028429265238 6.358626731782991
-0.21784723270629794 -0.14685983955752863 6.368217594148817
-0.20894092498571512 -0.11429676233086437 6.396440992091906
-0.2057024000830905 -0.49109176376053704 6.364829891047217
-0.20167262405105213 -0.57369265874798 6.337871543146403
-0.20071366586301123 -0.1316900008962531 6.3734716628708865
-0.19550912496758555 0.16094935874191674 6.338688937760588
-0.19172047599080957 -0.20263054925762675 6.354583830965242
-0.19026456330892014 0.2053781763289881 6.358330035929291
-0.18651207399259084 -0.5081038686630235 6.355615032972858
-0.18651207399259084 -0.5081038686630235 6.355615032972858
-0.17899771120399174 -0.11250298474450429 6.394328828807097
-0.1773629791568426 -0.1278450864930382 6.374020237807761
-0.1774913028244578 -0.17378643279819997 6.353670194974234
-0.1774913028244578 -0.17378643279819997 6.353670194974234
-0.1760771726717419 -0.4937372354554684 6.358877574218203
-0.17049181998725982 0.14756049980912656 6.344501662626451
-0.168752838175785 -0.2071526482954954 6.351478826854949
-0.168752838175785 -0.2071526482954954 6.351478826854949
-0.1667511909869947 0.16683421453854586 6.34278101127363
-0.16367449405500992 -0.5496325259573177 6.338775537090373
-0.16303207967412034 -0.5101117930338904 6.355444621814242
-0.16303207967412034 -0.5101117930338904 6.355444621814242
-0.1653534374762022 -0.11525774591177547 6.440944477785139
-0.16286327612032941 -0.510035537189078 6.355120406304153
-0.16286327612032941 -0.510035537189078 6.355120406304153
-0.15652425740179166 -0.5755258430370412 6.339768193956922
-0.14357285973927916 -0.14918986157868863 6.356715922591194
-0.14207683461870288 0.16798879223028348 6.342063822162186
-0.13924347645183477 0.20292282406531675 6.3553430125286186
-0.13440192602548762 0.18596487317433333 6.346515258407372
-0.1315948680539456 -0.5241482046932167 6.346559458644023
-0.12937314968692257 -0.20534624082159614 6.340998431071566
-0.11995381262258986 -0.5345023370552404 6.340377921552401
-0.11967878676469024 -0.45671698843672875 6.424665053079152
-0.11751489565557005 -0.511997466484222 6.3521743411309854
-0.11396814456415143 -0.5499645396247935 6.338949799797596
-0.10856592702852806 0.12111682184132191 6.374633853434388
-0.09845991070903333 0.13338622411688805 6.363069237273876
-0.09690611418660271 0.15085618460907063 6.352697229494794
-0.09488125292049945 -0.1321537558192778 6.360487852226408
-0.0941488992890185 -0.44156066498463437 6.440395405081056
-0.09125389899463161 0.18609298373686398 6.341897414489041
-0.09125389899463161 0.18609298373686398 6.341897414489041
-0.09109727690964059 -0.5099656006396489 6.341515473710518
-0.07882600459897232 -0.531546223247302 6.3284204563455795
-0.0754553387179849 -0.20546719689975546 6.333489466232971
-0.06841296568297904 -0.12980141145682145 6.352325961887195
-0.06841296568297904 -0.12980141145682145 6.352325961887195
-0.06695107662180133 -0.5090165893611336 6.337484247431634
-0.06695107662180133 -0.5090165893611336 6.337484247431634
-0.06468121755624494 0.190493178105535 6.336010446739177
-0.062468168383577334 -0.1867422282346572 6.331641743712986
-0.06024628893393312 -0.5502293955751977 6.318691215894077
-0.05602033894802813 -0.14691577161909486 6.345881976321094
-0.05038340967695954 -0.5308870476076692 6.325950634911542
-0.044528390155874766 -0.20605684464528576 6.323166264935403
-0.04372658649554528 0.20925844748775077 6.34557334221387
-0.04372658649554528 0.20925844748775077 6.34557334221387
-0.04000306803925964 -0.494406590719267 6.343311063868165
-0.03858633272922307 -0.1672976243106556 6.332045910994784
-0.038325249800683574 -0.16705974990516298 6.330712390187716
-0.03299703086239153 -0.4826895544938518 6.354258107852973
-0.03245750563058197 -0.5106244161954577 6.333877602119916
-0.02006355578772771 -0.49496459196574744 6.341676505488169
-0.014629236448519156 -0.1867979765558588 6.325617921347983
-0.013668975255622964 -0.5303042797394931 6.317205371800647
0.0001678496134031552 -0.20432566272591118 6.320763476640312
0.03956853534727366 -0.1699168682214013 6.320048654222653
0.042204265688565494 -0.4962515754683548 6.325580563703618
0.04526960041496517 -0.1294748257736269 6.33948222010339
0.04892659085039088 -0.511691317674096 6.316290063810983
0.06333648210393523 -0.17105369572492213 6.320248806327303
0.06333648210393523 -0.17105369572492213 6.320248806327303
0.07020986152444339 -0.20212828742060304 6.318616264375514
0.07339868858464652 -0.1613853566495779 6.32492789034748
