ply
format ascii 1.0
element vertex 866
property float x
property float y
property float z
end_header
0.5866261089509495 4.265518952525069 8.196218265117041
0.6745428065719585 3.416106687665412 9.05964609987293
0.6504164878296668 4.207787783324086 8.434588599090956
0.6751959722629902 4.229593210902224 8.14855414086563
0.6751959722629902 4.229593210902224 8.14855414086563
0.8134469867105677 3.2066930321467404 8.933017089572559
0.8134469867105677 3.2066930321467404 8.933017089572559
1.024536699052448 3.811991523144189 9.131253004394635
1.0628196321085706 3.9876843862248483 8.391298690901897
1.0628196321085706 3.9876843862248483 8.391298690901897
1.2338640865095118 2.4292262386515375 8.121653959219675
3.8359313721745183 3.3456229868979492 22.60268728741823
1.4290784805382535 3.473888544714075 8.122984184734452
1.5049250976909152 3.8198711580248768 8.453749818478512
1.5888877300446071 3.3860549118818546 8.242116368752685
1.7132200410036063 3.1947396351733057 8.678428480631062
1.695527959740535 3.095990247365877 8.579640320735797
1.978368226040761 2.338116077287931 9.222110416814173
1.8845953330249055 3.1428822584188225 8.731565544000523
2.0375837467047604 2.15132152837882 9.280430263554488
2.0781023165236614 2.1798677419157624 9.171016026395419
2.382716016460148 2.1454173664615963 9.065034535666538
1.6588974466442579 4.6480778931224 6.294207549363793
1.9344401096350385 4.584999041805235 6.510956869937174
2.380587239345716 2.516888021211453 7.873119859732595
2.45663851952082 2.6842500698473146 8.104378912972793
2.470731649071921 2.2744267534625466 7.789048629188183
2.535565235834416 2.5160522238593073 7.766144260940515
2.4084135843746433 1.8137452655298685 6.704452595747648
2.4084135843746433 1.8137452655298685 6.704452595747648
3.427840156067867 2.253692625778014 9.49642079481153
2.405353906181601 4.49279146666767 6.475486361770011
5.8109199252412775 7.11527174897983 11.260010923203518
6.01850731886896 6.964294831095273 10.810112221285573
6.1949826746107375 6.809414130224161 10.135789666468263
9.073692485086948 0.5550546694499208 11.506615559657211
3.6269313844437376 1.842646182621263 4.322526652837462
3.6269313844437376 1.842646182621263 4.322526652837462
6.369558807531348 4.811836064693545 7.1072615240538735
6.3501830949780445 4.88021173497329 6.966366438817214
9.277102735405688 2.251657480067107 9.570316416576134
7.091491501894651 0.43753103830215634 5.446893606993746
7.091491501894651 0.43753103830215634 5.446893606993746
5.879069982352288 2.0389107754557076 4.083142123685462
6.782568618539333 0.11053690867105559 4.701453254727516
6.766778074642262 0.125739622713468 4.6830027443307785
6.197801853478529 0.765276819359164 4.257396971661521
6.197801853478529 0.765276819359164 4.257396971661521
6.216738599286372 0.6970493391462933 4.238556282766404
6.3894531890961765 0.4392689983818194 4.3310269970015085
6.223370347979933 0.655905853404047 4.199734485829226
6.237174725752538 0.6547379737612116 4.157255386276648
6.160597071688045 0.7915614076161692 4.094063426720956
6.265377100828835 0.5969778721241705 4.117303802552121
6.217588868980468 0.6821635432332473 4.062616439133327
6.435553015719426 1.9365058968998594 4.155471792827403
6.004542421534325 2.3739735150121466 3.600140214466616
11.39224169922552 1.0353417421641666 6.786280265602319
11.481481756452208 0.6971572158302521 6.765659848801226
6.77927996922658 1.7042298051455773 3.77030227324798
59.582627418892955 15.798019797123212 26.526655361118355
-2.3001725864663443 5.676854844911484 44.89676684220351
0.9776122452853274 5.125845371822506 9.430771750827
1.214893816962974 4.999650420309348 9.411935098378065
-88.30650499369196 -84.64051941702999 -656.611009415241
20.33360816770591 9.523026642064583 62.7284454811841
10.11490933568795 2.6161927986023845 18.786448625433984
9.783021709345112 10.350530768348632 17.77256359026571
73.5181941497616 15.301468508511897 101.86521011064437
9.151023456169227 4.440543754233086 10.60710884716086
10.494204719758333 1.7811750200534988 11.332106982101644
10.55506796965084 1.718992184749465 11.384667609814038
10.293086650011377 1.8473771710636264 10.99441282838896
8.894780162727683 3.301257706665678 8.510321580043673
12.477964275264837 1.8141044684421637 11.817538756431034
5.150233350215596 1.9719553702737105 3.3271614160198926
5.1744052001123535 1.963120636037434 3.3262970863439465
11.074512730499237 2.6736757950720764 6.919294304341305
11.074512730499237 2.6736757950720764 6.919294304341305
11.046993745609342 2.7091761417184674 6.89360352917516
-4.741357832343552 4.601821548796308 64.10278589116824
-0.9951155629220005 5.351523010470824 13.668275620807195
1.043193241363945 5.643795127904332 14.742249142030671
-3.4410980673393428 -23.00517079543499 -34.86519897413769
1.4279969216137836 6.2035788290762 11.636112246583869
2.526294378879669 4.4259911453413014 13.274794872261607
2.2836553239160065 5.7808799197784735 11.922497235889953
2.3371365734856515 5.715071584726138 11.966184682348995
2.479961955253467 5.628572622312253 11.969530343021558
2.6192861208654827 5.438529721131423 11.48827550467482
2.623815439512941 5.4467012448813685 11.502662690749954
5.0845835587458685 2.9954995014157504 13.665430281078013
5.265441983300143 2.6942243002705366 14.005672265228004
3.006609459103634 5.777996345291429 7.703099284446118
11.615121804729156 17.5451008900985 29.574354602696772
11.677808545336942 16.688229246430314 28.04009278985609
11.677808545336942 16.688229246430314 28.04009278985609
11.677808545336942 16.688229246430314 28.04009278985609
3.3300081363191065 5.732802185889739 7.789939308834954
3.589949915573884 5.723132098797295 8.122647792323644
3.6414545461621155 5.728891184641066 8.179290357526115
12.099821399528862 16.09836780121652 26.997630690907737
13.393895976535315 15.831984736033911 29.27068371208549
4.988823646708379 3.002920606232448 10.869046028588349
5.03699621923975 2.8520892096518446 10.873571624001606
13.853243686340566 16.068037484210024 29.440113165916106
5.105856798580527 2.910379089713315 10.82533496032411
21.26876481754728 3.456442112626569 44.35048323369026
13.293058977569308 15.277486016954176 27.644273969172367
3.7219691168930056 5.769215615401879 7.7121744901830995
3.7555946087489294 5.753869686577058 7.712018667165459
3.7555946087489294 5.753869686577058 7.712018667165459
6.1562991618484935 4.3014058620558435 12.323817867620592
5.645370639876028 5.157899176472219 10.957774174317356
13.184008380636147 14.476679109953908 25.566800566253402
4.2977046372528696 5.6937644134647165 8.258343531659778
4.382806108425007 5.70042260143551 8.27872690177632
3.158735691308885 3.25668299835388 5.634260951104795
11.718500969685499 12.1435714475269 18.956957501247558
11.553141777677272 11.45211393299067 17.01486584406759
4.516507267775083 2.907769007857818 6.354492001399769
15.053140818223943 3.847011154040763 20.36675984151168
14.213551550232651 6.056203060051202 18.96543576858302
14.643613042621158 3.672178545520388 18.865513999455132
13.347541664492534 4.263552969723729 15.310944695029905
14.561877984635554 2.2154706963260873 15.808613081796311
14.648484169794111 2.195853961159339 15.71726363628361
11.743614582623614 5.7469997374092 12.032412970667462
13.312653436421499 1.9209790635676196 13.418480239910501
14.371650453705676 2.8071045491386695 14.281030053640876
11.617498855461912 4.460971042492289 11.440364110873077
11.684765190046964 4.471425074125858 11.458760316938026
17.26242603941156 2.7066425119898483 16.84608496499957
11.612195965629995 4.544562858715202 11.311707297798494
11.612195965629995 4.544562858715202 11.311707297798494
11.08877278800668 5.247548177624816 10.652059157573564
11.41395810054372 4.577351558713114 10.92861644386106
10.39891302732911 7.0964953549483365 9.946257123107207
17.08264398896932 2.5117766448672825 16.330177648516276
10.566537473280778 6.533107252395322 10.093041787942573
10.555938388362403 6.937149063618683 10.069953349064004
10.355553213593598 7.232701756560241 9.843921486676717
16.596924876345497 2.4357297443874666 15.67363256574276
16.917832843375365 2.6228744470290515 15.944686805865187
10.266449578922455 7.43595097887514 9.619337667293651
10.069016733983275 6.7740279667687044 9.323789710655069
10.22679385742339 6.662036723850757 9.459010556852103
15.041174258759726 3.0346573757410793 13.70949042328186
15.475382792821778 2.94582505232495 14.0802377797567
15.18415809100565 3.027176386453573 13.780065196263479
16.54073623225222 2.64441875371001 14.970055474956506
14.6046437152384 3.3995696068093753 13.157227405194366
10.229989234318145 3.225546319124653 8.978650118316894
10.66002935791026 1.6977429471590184 9.08422810129151
10.707062650170451 1.3469353752588045 9.032623334292774
10.820644399969545 1.3066117383442866 9.089079798354414
10.789262989694356 1.2429108373905031 9.052700580376532
10.937329946492332 0.8406799583173228 9.047702476617955
10.95210728736664 0.8640840055119337 9.03418114738709
13.958502138879414 2.634784527223217 10.5753220994436
14.217373730798927 2.371709329694181 10.627389668051817
13.991183929887503 2.543729066192884 10.401314749842003
9.251236983653072 4.904474632573809 6.866730591619465
7.3256258859958185 1.2458706054091573 5.223101124392891
9.930674334542003 1.0285232486023348 6.736896801305581
9.562177407327399 3.22402507987114 6.238148047048951
9.92449996405656 0.2941276254048234 6.417746683258957
9.571050217627034 3.0496694278824603 6.140950661157625
10.658470860593631 0.2801675486118746 6.824233531940507
15.381760931047928 4.059728559769008 9.789788657609751
9.238621260545914 1.0472477821921542 5.866046769317465
15.460230277483838 4.021543210138439 9.701562960056311
15.381245977370964 4.173870570329709 9.637821675528178
15.354302088843486 4.099954591487603 9.553400204153707
8.851270702195713 1.0881573488891507 5.477946759586398
9.017377695847587 0.8612643188415354 5.489803568753586
14.137310738474019 5.6322181497057695 8.54233996185317
14.137310738474019 5.6322181497057695 8.54233996185317
15.47957848814093 3.84204012968231 9.324257250778558
15.551360434362941 3.806225240008261 9.311397153937595
15.551360434362941 3.806225240008261 9.311397153937595
8.993945367690834 0.7795507167610013 5.380142743631757
8.873704388824697 0.8393592560361635 5.217049179584798
8.848596067643923 0.8748741920635952 5.178780122941685
8.807982577981436 0.8890858024536381 5.154471613641599
8.7805634350243 0.9143378984651832 5.115225053816479
8.590990024083057 1.1378700959309682 4.99995250594173
8.590990024083057 1.1378700959309682 4.99995250594173
8.755779839423132 0.9587001237513616 5.074475070674273
8.650795156758042 1.050071835953335 4.9812151086614
8.53944227104818 1.1684850485284979 4.910159721123135
8.67629633380784 1.0266383090533067 4.986262212086483
8.621380799249877 1.0727070105647416 4.939901510661385
8.707412990241533 1.0374371506752489 4.988067016248597
8.444226384987767 1.260611283738555 4.834314109199151
8.490065697732645 1.2121399373206077 4.813608428674905
8.465498739806783 1.2503993572890733 4.78869510661043
8.43821580442842 2.9598989515640852 4.533320689392655
8.15166480642222 2.937729468601715 4.374687154667743
8.50316361917659 2.949456840647506 4.550788624846918
9.23378535212674 2.300846155507523 4.883526266172039
9.216408260348455 2.2878725057085125 4.858968300292165
8.079888124926367 2.824586523000215 4.209088978281376
7.526585980466684 3.026132794606142 3.879470817220656
8.861663646674465 1.8323825628087493 4.544027529726674
7.492843958826208 3.0249914036330936 3.8068593070283985
7.492843958826208 3.0249914036330936 3.8068593070283985
8.446934121956131 2.866663480393737 4.288892687347719
8.393606103002012 2.839897765086013 4.26080751626937
7.904681238633608 2.73420661468686 4.008109038332146
8.45995660044433 2.8666590184312 4.283549878616298
8.432313179075116 2.8502997167274815 4.255201751728999
7.564459130781924 2.9898017465012177 3.8004031924937305
7.564459130781924 2.9898017465012177 3.8004031924937305
24.90755709010031 4.663677596471901 12.506232586167549
8.825799013095558 2.5999541387286307 4.366992800314446
8.811049154600337 2.5682953232170966 4.310812724045419
7.56191832030792 2.8821115377536244 3.685888000487066
24.257234329328032 4.282764520645972 11.607892751961728
23.99734252465917 4.2308247566169355 11.457134111293119
16.786041491156528 1.0980697733534206 7.60525486168647
16.79786499252396 0.9763850180404983 7.4767276086221175
-3.6111565292835732 2.1117932770450545 36.95530351943143
-3.351595916827182 1.9800625968099608 36.107917578726386
-3.112493314507725 2.5127092322676834 37.37712160837817
-3.112493314507725 2.5127092322676834 37.37712160837817
2.1530169355105055 -113.9677810855577 -161.15459884424476
-0.3431701510043427 -93.20461553578498 -131.67572206620764
-0.3886070279146838 -62.24477261633713 -82.10071047865073
-0.639117240943782 -44.471232044660844 -77.5987704577829
-0.9487421705849882 -71.05060806326593 -96.26489317199953
-0.845991803986101 -18.917537636742882 -33.00322003043477
-5.261960451976314 -54.8164398752551 -74.08084390666369
0.9532277041222884 5.238022524753485 13.127031500644826
2.262427688431783 24.183410216203065 28.90168045139559
2.5711990957135984 23.15418260304114 27.745899265722095
2.5711990957135984 23.15418260304114 27.745899265722095
-4.484862724684469 -27.99851052948216 -46.17399058533449
-4.964674338312372 -29.46747390299045 -47.97909223343969
-5.972234481841125 -29.125159033726657 -47.61318937369964
-5.879247081413236 -28.6925055505876 -46.185122049179526
1.733073044835985 4.801325990941963 13.190703088207414
-6.676373296734933 -29.660455356801762 -47.1317601707544
1.866774823271999 6.373513592876045 12.098405064230214
2.210499085652354 5.519789536158684 13.974138684924059
1.9973620391705185 6.343065906524352 12.043323831554904
2.2182738324398157 7.752106219505492 11.79967298867264
2.3826805960347768 7.683861268312962 11.808555770264334
12.839998412400792 2.617546242826076 55.74675929884864
-6.08892977445431 -10.519005736843033 -19.169720953997377
5.350152573152948 9.154190524370513 15.591240365171057
5.450086150435317 9.312574586202352 15.75461860758727
4.1516749584725385 3.048478298390971 11.9442531445512
3.314957013218318 6.555293168742434 8.843228383944714
11.043266411286252 17.011501958636174 28.965146499780136
11.317049995460831 16.850614869420387 28.584673285364463
12.471467062173565 15.69284720450536 30.258124795401805
11.85606027796644 16.277856592343433 27.927098928650874
11.85606027796644 16.277856592343433 27.927098928650874
12.866096491721532 15.194199663466454 28.284830533933196
13.085434534897097 15.572738610166196 28.444795055998103
11.851170855202053 15.50489244939086 25.410628194897715
13.079025963923224 15.162722225523607 27.872091121966484
13.079025963923224 15.162722225523607 27.872091121966484
5.975058434465018 3.4879279032165837 12.641226055329403
13.067744735029128 15.273974539272437 27.64188510757116
12.0684677662347 15.040216076878606 24.99422154243599
13.166074122237653 15.16420352834374 27.176512098616676
13.17307358751524 14.860191562608195 26.746564633685313
13.357812698414033 15.123379838665254 26.937430382422075
4.5547417138935575 6.428345435965637 9.115193430464982
12.135475539108233 14.694896477251374 24.006314318782692
12.214799328035081 14.432162037610587 23.075798872225903
13.089774845552363 14.28806719679902 24.409608845995898
8.854415428822888 5.135030395518854 16.441195944062137
13.424837870486915 14.319702301889262 24.798744911270116
5.069536752758932 6.348232512553461 9.201727044406212
12.393773745377196 13.99175487832263 22.424789295678107
12.393773745377196 13.99175487832263 22.424789295678107
13.002600367592832 13.842333146265934 23.42369544442936
12.344132718960298 13.997513104249975 22.164541540908324
13.25109371199014 13.84622586509131 23.492594924741443
5.934154127740245 2.8436424284762944 10.384613258792875
13.18711735782865 13.660397789678742 22.89117101118158
12.502610572158893 13.673345459332358 21.651588365962347
13.171313366627036 13.766705146462998 22.719342302983797
5.889526696410216 2.4380761853722333 9.719745383620587
4.156984313211911 3.7564292229337806 6.288750243283762
4.7729728918556225 3.5251576081725253 6.724085214848289
16.632014966357232 4.094267883534787 22.401340026564814
26.80670897831149 5.673726109832358 35.321680794385124
15.843241824669674 4.495690767245931 19.30688524896043
5.911244879664346 3.449108609273838 6.923323365736297
19.627565303248844 3.1701462650954633 22.783769268317553
18.679197460023392 2.9352850814235723 21.54818524923558
14.692770925215191 6.537731297416034 16.20206130924701
14.589603301715144 6.536283343666474 16.071655222297988
10.210381963570116 8.617039218078531 11.164416199996438
16.81434700568198 2.9408193161155864 18.194367206691574
16.183854600341835 3.0289184965410505 17.087854356339214
10.530708386344886 9.091368482697714 11.077543587874898
14.326138986844752 5.37549296585859 14.088012781893658
14.098772585862099 5.606715517774121 13.83089377371654
20.04691345536667 5.7265357285594884 19.51498334673795
14.33726906011856 5.584485854817818 13.887140363725141
13.821917995088926 5.966132305128878 13.304585597016944
20.327980763020513 3.2006988678349284 19.484820218818818
13.727683680846972 6.238855778538756 13.12883835149053
20.17332428200827 3.1038679423251936 19.22849473822529
13.330015165190032 6.920122029207735 12.645364973255152
13.461682268228246 6.5625525041475825 12.676130159234596
19.53135469549718 3.083754843147884 18.323050832754756
13.076717121090189 7.533716443066984 12.241586676566868
12.8675874107534 7.71806433596387 11.97693603112454
12.8675874107534 7.71806433596387 11.97693603112454
12.471917811588057 8.514680457790117 11.565911027183324
12.471917811588057 8.514680457790117 11.565911027183324
18.505982021520413 3.7127726633696714 17.007123817057554
18.342984930443816 3.8340355744660104 16.822369104117023
12.339908931805946 8.623190840240692 11.278672601468273
12.314923439046492 8.982323382281287 11.254517184586003
12.314923439046492 8.982323382281287 11.254517184586003
18.56133473908964 3.833001369197957 16.9578961092678
18.312370131250624 3.933028436933659 16.69335333399138
12.235173365996971 8.818000260785388 11.144385564563809
17.731119016902955 4.3271636418909 16.125512157933652
12.01936971303833 9.265600859322651 10.931094549851663
12.371894730139418 8.619087582756244 11.221672748698444
12.073026533817135 9.209013183559634 10.943303308151123
17.727183326123995 4.254499940888202 16.06273223696911
12.457661851388131 8.75811136539955 11.285652594414092
17.776256849709192 4.1898757360802685 16.09266730456836
12.01680180988099 9.280883279709721 10.875702258376796
13.58803336679047 7.785940067061469 12.108847765395845
13.58803336679047 7.785940067061469 12.108847765395845
12.835868255004799 3.7538134708091793 11.088164164549818
6.193629405464505 3.068262124315939 5.230811805420878
13.620572197287665 2.1307040693321873 11.356702309878997
13.4630925593185 1.9066519604954504 11.153083552182963
14.063342003720889 0.6648101822341548 11.096959355186536
10.488722943259887 5.510291386333598 8.215711337110667
10.513250638939008 0.906725162064673 7.800335577664174
10.84828556725163 0.47425448874903936 7.97318187110284
-12.439889761606942 -5.700228456641246 -9.110865736281516
13.112204911170798 2.604315133362217 9.479722807338758
13.128406409443576 2.628542239037974 9.4805648827773
9.994989384093827 2.1503789060961953 7.066742099855747
13.006017234792562 2.250222660987511 9.117476467837983
11.799556581141344 3.58190580729455 8.253518167030832
13.263639946562273 1.6581759123421316 9.255604933998981
13.154794985839592 1.5504971626048183 9.121419508384264
13.2405892866916 1.4199782911191776 9.109902902274069
9.725724704920777 1.7189982570452909 6.65744212276425
9.725724704920777 1.7189982570452909 6.65744212276425
9.430984901624102 1.892407425674174 6.452659707835549
9.386257042911673 1.8264258896795058 6.41743092644091
9.398096936017307 1.7896018208127078 6.404580575511083
13.279432792963794 1.1014945486283299 9.01324185867918
12.8203164311011 1.9270492694051642 8.669794897248247
12.818191525640485 1.9126019591694716 8.66186849434691
12.818191525640485 1.9126019591694716 8.66186849434691
13.236902984733607 1.0333395412999162 8.905767677601558
13.236902984733607 1.0333395412999162 8.905767677601558
13.242017669308263 0.9108637711360306 8.845123344799198
13.228367884711929 0.9046393220464377 8.81622182101398
12.301466888626727 4.288445662416608 8.010365160545652
13.078003488725024 0.7234269932507276 8.498221866675477
11.011184878734737 5.804854776377451 7.141865601129031
20.145098359118823 5.77293606789657 12.649997549094538
10.995438405895795 5.366491237714669 6.895737119691055
12.389247767690215 3.7900503271891988 7.749515923481083
12.876616113952357 0.5336438265357119 7.942572774565191
11.417197863057638 1.8547686809661985 6.972986003172971
11.910152528270729 1.2387646787919253 7.130595000290198
10.30638740867542 3.3236388059215107 6.165247855563691
11.500055347804073 1.6114456736589196 6.829196478378713
11.920655547142408 1.2017812507201884 7.078825725426601
11.929904757588188 1.1741253904554674 7.074991217925093
11.51050881540863 1.507937104761935 6.7880241867638444
11.864173081184711 1.1906558516381147 6.989302281154659
11.651922596406067 4.598050923763269 6.842676064805882
11.651922596406067 4.598050923763269 6.842676064805882
11.807193077281426 1.168305716299965 6.874211475729034
9.612206279097423 3.3963989819957487 5.595143311195885
11.795203846824514 1.1687280999951695 6.831348763516783
9.910817245254929 3.279896405588089 5.7293991484942985
9.92821454669565 3.3132144793820677 5.723220408762875
13.096553251287663 6.408973366240017 7.486901658615251
11.60726081893981 1.309749015626318 6.618937000308135
11.626743127088902 1.2876784463666873 6.622527934417985
12.481223719027527 3.0426515010763167 7.050800946891236
11.19220557519398 4.279675992806862 6.300213709850435
11.454894759322007 1.4348028920613611 6.435096577385861
12.98966197652241 6.220830026284616 7.28955537429123
11.4802479903399 3.1968896652916694 6.44069003280181
11.554599652276819 4.189775374335084 6.452086054453157
11.170180585606275 1.7333752569501073 6.228443341636382
11.337657691408335 1.5293269706743196 6.319946966108201
11.084888841767526 1.8049842471114732 6.165317073677253
12.460983977514555 2.9851350030609543 6.914853268579695
12.460983977514555 2.9851350030609543 6.914853268579695
11.245725743198305 1.6253025711105125 6.238468550053968
11.23566501154285 1.6173028903175841 6.211711994356459
13.1447184107033 6.119413110885009 7.226803444940207
13.18632806017339 6.049911778024159 7.192645882246663
12.399225440891689 2.944093801496132 6.7552272598657686
11.315102068505572 4.0178920127254125 6.1543830398514965
13.20242679868561 6.023758444379109 7.174052829809452
13.20242679868561 6.023758444379109 7.174052829809452
12.13810377615788 3.2643875447075352 6.464339547622245
12.082262687491644 3.2991474345216085 6.418033307132703
10.738943802683245 3.866428378611666 5.684731457020283
11.68370485306586 2.6573730818226933 6.143052305039843
12.111068246461507 3.177629072168149 6.367333208553732
12.111068246461507 3.177629072168149 6.367333208553732
10.753271738007868 3.807736597081751 5.639015456406209
11.925575325739166 3.37508412143457 6.23825212411214
13.145819136843182 5.764957214917827 6.8574631657586425
11.742459543911366 2.621809516668004 6.117450756481455
11.87622156331905 3.3047806799157415 6.179358652191509
10.998736780442657 3.788797111644668 5.622346226768378
13.171180484253467 5.584656397579854 6.710179982999287
12.01634443285123 3.1283168466447613 6.119081054097996
13.287583286968372 5.605386726267213 6.740334252089364
11.736915997632643 3.4235893569681792 5.882348317227545
13.216090106879001 5.498824865339605 6.61446902369117
11.911836328315173 3.2765126214942715 5.95894546801213
12.137382150632217 3.173475495384734 6.047108246877357
10.86050521234503 3.708640377291367 5.313742991936693
32.16782444896343 11.545848468453707 13.327908851117913
32.16782444896343 11.545848468453707 13.327908851117913
1.9342390566774013 21.55815944051407 25.94509506901588
2.0817601736804714 21.995727539138542 27.428709634330094
1.8335363846716115 29.165179475909685 22.925562404233393
1.933801935032462 19.801267960120267 23.178698168566736
2.310271654366485 21.609495380518325 26.75884865482275
2.299142338753175 21.7560305538843 26.596502751857432
2.588176365775803 21.49054764816711 26.457213878780728
2.2080753846028585 19.457119227668244 22.02467347009709
2.4516244887372167 19.983305033117777 23.595263086913757
3.029551771425957 22.078216592636192 28.113173161353483
3.1124799568813253 21.770659654715637 27.658635005575285
2.061886295926179 25.17959210127158 18.20511140207505
2.061886295926179 25.17959210127158 18.20511140207505
2.285545965130783 25.653717178854176 19.921146993796114
2.315991474870036 25.39275433409958 19.791472092874027
3.1855301561356395 21.524049499215884 26.93305691777955
3.3821080715855993 21.703897759935213 27.34030293059948
3.735554652107507 22.75015264138239 30.046531456714032
2.2345048698877905 24.61366033263395 17.770273981488714
3.4800618670311447 21.67099474649099 27.48582620773112
2.927863283043378 19.30941693254293 22.63869139254017
3.610799247812069 21.53319326775212 27.463134836147795
3.734300121411859 21.66001742860427 27.768347701370693
2.6989277759657826 26.03092410089491 19.830134778091576
2.9765035276267886 7.569294691780934 21.492722050524133
2.7157142655552926 25.295344959390913 19.48772611404949
2.406588820416511 24.277514274731608 17.2464119335344
3.0236618586413573 7.701065410461565 21.278769637478497
4.295297212425274 22.343481888376463 30.058518234011988
2.934481022894 24.914174685979635 20.143755890660533
2.8133215482533833 24.85844243605036 19.01925251410595
2.8133215482533833 24.85844243605036 19.01925251410595
4.210519691548267 26.441326833124982 27.327989839544514
3.0681781757213837 7.498202295372178 19.85662770319851
3.486694926626187 7.724595497851989 20.49754100977115
3.486694926626187 7.724595497851989 20.49754100977115
3.521836751450106 7.625884223834225 19.98453300781064
3.3696299209417817 24.19821396164584 19.011881219914205
4.054634709570283 8.04275841545834 20.943859938090302
3.771684834087724 21.798449092092913 18.480472060966047
3.2543819118927653 21.879148455360156 15.825967975289013
4.197061013281584 7.443157888270436 20.178770251033523
27.317769961053244 -16.25728372378419 128.38153846259388
16.230155068866388 2.4893937984618955 70.2033612244065
4.741197659369701 17.245503211423298 20.47543969501836
4.597661013289241 6.882570785335741 19.486750076931095
4.850766601401834 17.060481687132814 20.205273313853386
25.9958509044263 -11.334011994628526 107.59088540753733
4.642202297088982 21.363023738919743 18.953350132874377
3.9145082248007714 21.645389895319727 15.857250429786186
33.75536192250727 16.387413044430318 135.7707881005418
6.455098041013914 24.795629235475882 25.61265656648997
4.796997026819469 9.013318044896033 18.877434214187115
3.9412336165087236 21.29409044622086 15.239208259828493
5.29930690930894 7.158282686371077 20.465341962892317
4.280122851222135 21.631720405611055 15.969145594946639
5.682799318103373 6.652149732967843 21.196308107275794
4.368099489045767 21.84546896056628 16.25749968687056
4.3140856969671795 21.647623797688237 16.02095079621818
4.3140856969671795 21.647623797688237 16.02095079621818
5.688493159250575 7.219573863961622 20.774799829226122
5.915195948677345 6.924706871196233 21.583256560423305
5.062578268963109 22.4431957034731 18.442024765346645
5.636498013977076 21.116350212434295 20.46796303820763
7.836866875138718 20.499787414268564 28.287908201247753
5.751789157613228 21.153239012362054 20.61123069272743
4.373360926064728 21.21288876095848 15.400104315033838
4.656909993819948 21.70482193366501 16.155206453634765
4.606169073862642 21.397289524409505 15.689290064561693
4.69448581884933 21.35910663290883 15.66483631935685
4.567809531475276 20.968304224065474 14.782429457699745
5.861492770357581 20.850906883738997 18.75620309968561
5.223156461825381 21.68119940791477 16.18205626442473
10.950518083099116 18.92434581405706 32.74942244313387
5.453880480853305 21.790323300601834 16.288071771264875
9.927713463405125 6.362052412685797 28.93243786809252
12.126710248860133 18.909706089037883 33.408566548066226
6.668159984824015 20.345342959717012 18.212472433975194
6.668159984824015 20.345342959717012 18.212472433975194
6.728482738271713 19.353333140944073 18.029402772412354
7.368233929281811 25.290732425581158 19.529246580570774
5.516844723754548 20.157173761291578 14.414575512628067
7.634016964765606 19.709284529585897 19.94240123851338
9.695540484327573 4.579974536990569 24.771370546607994
9.773586830934612 4.493767516587333 24.804619953826037
7.8843985231289455 7.344423733829309 19.63215927891777
6.173654375188311 21.03673539076104 15.376529058943511
10.174220615511144 4.460533877079218 25.332308064430748
9.923970490539922 4.709358264685618 24.667963729615487
7.230826295038856 19.741162603871626 17.91415033409494
8.57451172025479 6.908499333512625 21.23143253923051
8.08164289147248 7.522171190125164 19.95336689843893
8.034803450142615 19.393422890172985 19.74929427849601
9.92119029440544 4.677956466312835 24.369161022783643
9.92119029440544 4.677956466312835 24.369161022783643
7.2745135508062715 18.866549032194488 17.840111681394447
10.231637078449225 4.4328374234904295 24.945765449778385
10.231637078449225 4.4328374234904295 24.945765449778385
8.230356798508813 19.790911389019385 20.029947934718077
7.3520471730731805 11.123740241734641 17.84748380058787
6.270637921846233 20.650421928836536 15.180832070416677
10.199348503665764 4.7648788697287285 24.4437449243344
10.172380977070594 4.657341555586773 24.365165862644094
7.563351536466915 18.83689467264073 17.893626184033838
10.533957446028692 4.564807181090254 24.80567191863651
6.277371045924764 20.3258584419137 14.747388214619612
6.432424980160582 20.550574466355478 15.02713207928974
14.943562255400998 19.708337460130625 34.88464532259283
6.677911767705137 21.044952490901395 15.497395490160091
10.678138921416839 4.61280054836403 24.666842904563897
7.628326326577856 19.377859115076568 17.61746631699709
6.480269338099246 20.446897703139022 14.913875903648863
10.933123433017142 4.560281858341099 24.87177272035308
8.924069173014429 8.184448482050502 20.29294310479647
10.688877458796075 4.929829232988819 24.23703864855182
10.974038444044712 4.650112064922072 24.832852555204408
10.974038444044712 4.650112064922072 24.832852555204408
10.838372501371866 4.779142676536319 24.400588319500574
10.838372501371866 4.779142676536319 24.400588319500574
7.8649542364330705 19.284692967005387 17.600896993767527
10.93439093527838 5.032950425681857 24.431879364118284
13.967269654720148 18.321559862750057 31.051787475689874
10.764633624619199 4.829369023285065 23.899848080211555
9.850846827076138 6.680690064823508 21.738808989080816
15.923575081206897 18.95391561187967 35.04983726208738
10.848363676382402 4.943488232458927 23.802616256142286
11.467968333724173 4.323361738956891 25.083967410813965
15.554386157090574 18.294815838997433 33.90918427004252
7.84879517249528 17.754554651688156 17.109148303817324
11.100672936590845 4.671535944264603 24.196075997702106
11.35785067407415 4.520681583133117 24.731819062425267
11.27765123756526 4.337464782621228 24.551575045868187
8.078358812848256 19.17501325077889 17.564025818149442
8.078358812848256 19.17501325077889 17.564025818149442
7.219408178601129 20.99132277458319 15.470185594970218
7.219408178601129 20.99132277458319 15.470185594970218
8.134071337363833 18.16625613464126 17.403724179274537
37.9206273941575 -6.895572767251607 80.9696155118838
8.234281121013268 18.987164788713116 17.44183764080248
8.234281121013268 18.987164788713116 17.44183764080248
11.216139604178453 4.493232669927307 23.604519620041774
8.248516841702099 18.14197768385789 17.30322689149525
8.248516841702099 18.14197768385789 17.30322689149525
9.596608996921441 7.41325856615135 20.063147064945394
15.682691756342422 18.0551895244166 32.733241466154105
15.682691756342422 18.0551895244166 32.733241466154105
6.886895144946104 19.84953328227923 14.304257788584161
8.319633868263185 18.1556873892773 17.215160033865775
11.5325722098072 4.494551469348046 23.760192677399917
15.797005325130604 18.560365295895853 32.46377688458783
15.797005325130604 18.560365295895853 32.46377688458783
10.283708666301127 6.070844119753005 21.118459742329232
10.875748219830857 4.842836951596694 22.178269178857047
10.240908728398194 6.128475300710301 20.88119518128862
9.369558322524938 18.609927560497358 19.079830466499377
15.865344207646826 18.051182734277937 32.25579109795592
15.865344207646826 18.051182734277937 32.25579109795592
7.281758251188953 20.24344180613877 14.779141190435727
10.465409081312847 6.256961403685277 21.15504802647091
10.481159319679811 6.379168146633482 21.044454994224903
10.425035343896973 5.6897915513571915 20.903500099474115
10.238641433183663 8.241305438266687 20.486125837256363
10.238641433183663 8.241305438266687 20.486125837256363
10.536594132026998 6.2813831896579 20.94955893749446
10.503565832111084 6.268768464964311 20.785327608401044
11.815169014174767 4.366239403170821 23.297055856172015
16.143230211563736 17.639502586753068 31.789919335761816
10.571732645327577 5.975840420466321 20.696426654455575
8.734839048737951 17.811400728917228 17.057054514797038
10.776227725664311 5.859678548509425 21.020849030724584
16.187307501331468 17.749780872987696 31.326759922705016
10.948413918617842 5.953349165215968 21.180644048757696
10.948413918617842 5.953349165215968 21.180644048757696
11.074318661425536 5.620657733958078 21.39804303763225
11.074318661425536 5.620657733958078 21.39804303763225
16.209596879468137 17.878190301385885 31.163584899861167
16.209596879468137 17.878190301385885 31.163584899861167
11.134542802081466 5.710724486096407 21.377091124382297
10.65903039712556 5.998980816010138 20.449689709962293
10.685536294762358 7.604376824561149 20.421720396205778
8.959160970776862 17.613233026472823 17.057525405735607
11.023863585392876 5.705397629249527 20.971798017404055
10.643341132041611 5.863737081164864 20.228719983771676
10.643341132041611 5.863737081164864 20.228719983771676
16.349172909695174 17.74883271391011 30.967283442235836
16.216206349482263 17.682637479203112 30.514523407544704
16.216206349482263 17.682637479203112 30.514523407544704
9.005418741156332 17.55415310124391 16.918715198257967
10.435985135707593 18.35767363711168 19.51440368717104
11.186987811201634 5.5795585994516586 20.88743170938855
10.859484827635494 5.820119794332476 20.18260459408015
16.082648429774466 17.489414546471618 29.734055040072043
10.132632582503708 18.1164634083688 18.60219705426261
9.32828892714209 18.279147173321157 17.05961345730327
11.126008591956783 5.397684369543987 20.28236747780225
16.586465359881682 17.19019612960746 30.080451401393347
9.264256610524733 17.457177251942593 16.779131241906626
16.35845589890881 17.599075158347866 29.601030178080514
11.306800437977524 5.153506717147968 20.44351017262312
11.27168459802664 5.242885899581148 20.308373652440206
10.317277764241036 17.972208377947283 18.51930852326907
11.212730137346112 5.265468689233777 20.11840831575509
11.212730137346112 5.265468689233777 20.11840831575509
37.3698644088598 4.754401549176463 66.98152115721693
16.77018689306224 17.519808903367576 29.995567544264603
16.77018689306224 17.519808903367576 29.995567544264603
13.21708915221261 7.5410275642491005 23.355948605579215
11.508802057327651 5.406242216326589 20.203165984482194
11.152274012596674 7.507156658256146 19.532920996530684
11.430732214535086 5.44926914007829 19.93063098209536
13.201398136577197 7.785947943071996 23.00556869301351
9.623445890787645 17.21264938964993 16.711183529581273
11.429779709995362 8.78396316676693 19.63872585711247
9.65522213450412 17.077676296217916 16.58905600808444
9.70986156884152 17.02355182192108 16.643007884320102
11.921218742971869 7.936214107446503 20.330477058426368
9.800438629839762 17.02029472389838 16.559706059840813
16.872824701088977 16.89292197427934 28.35214119678527
16.872824701088977 16.89292197427934 28.35214119678527
11.883593377412677 5.015398729387714 19.945677639588304
11.723378519846584 8.970281248144918 19.66836198957807
11.723378519846584 8.970281248144918 19.66836198957807
9.996417093821055 17.96056986927091 16.7502790053636
11.5317589451369 5.4567925776119015 19.142814813486687
8.740788186525778 19.1354155935999 14.372264532040807
10.259456679485444 17.815735713464818 16.86141705069711
10.259456679485444 17.815735713464818 16.86141705069711
11.536177146277256 5.441001071855921 18.914380472798427
10.374048623413515 17.60229229592583 16.75457904947317
10.434497693401426 17.668891103598696 16.722747764208048
10.434497693401426 17.668891103598696 16.722747764208048
9.522549613877255 19.344219023568915 15.2584422595818
9.494597107995451 19.26917784582162 15.171988810191962
8.805840813435912 18.790919396561534 13.95435282286759
12.824075185488985 8.336436334458167 20.308018653016973
11.549506558069101 5.002124837599857 18.21004094131437
9.045853160121307 18.800447977216006 14.255805023712227
9.06028655208165 18.868359185943074 14.252235491310985
9.060308102479127 18.783136719625197 14.233713848259717
9.75963846455116 19.234339728823123 15.328186799678184
11.461381116444743 4.962088485550903 17.976651858434007
9.075781468229687 18.806570412337695 14.216116033141718
9.775257181464664 19.22950693434621 15.308341639784194
12.963470268584421 8.340847781260676 20.27170213270147
12.963470268584421 8.340847781260676 20.27170213270147
9.02943916863382 18.691484524322956 14.09543510769118
10.651172284983039 17.531842338826223 16.615061917276254
11.72749501294433 5.031540643135995 18.289742596276866
13.097900263467535 8.394027995503983 20.269624094222795
13.097900263467535 8.394027995503983 20.269624094222795
9.535731188509708 18.909351362868932 14.754389604387615
14.67711068563722 8.544790358575545 22.67270261472067
10.645225070666799 17.295079984822333 16.416780469601914
10.645225070666799 17.295079984822333 16.416780469601914
14.728329690226246 8.664719345255737 22.705991258054254
9.567835731776169 18.903983294474383 14.72939638066024
9.156082470958724 18.6659205157594 14.09488993509715
11.325476810062344 4.354668278574314 17.332030058496645
9.474919460101274 18.674985733489798 14.490091949145615
9.193906345886273 18.616468406049364 14.041584915908162
9.251663251030106 18.614428929175343 14.093976265512685
9.251663251030106 18.614428929175343 14.093976265512685
9.484593886932108 18.55666357965872 14.333359548501756
9.585431017328917 18.700912792662518 14.481836233163698
9.479592422607272 18.58641503260748 14.290580806199566
9.46568339518162 18.62512847914236 14.255835068809489
13.44285737897776 8.59882521486396 20.241970476902587
10.968090299822958 17.39807332835426 16.517470503714147
9.45127649968447 18.53557710459309 14.224928307097912
9.603133818174182 18.586542051922212 14.441796338306094
9.538633441775316 18.46745848638953 14.319226035036866
13.18156471876562 9.640143339305421 19.71109907171488
11.70682689644046 17.192792223052304 17.497117429146613
9.402746187970052 18.38468120257733 14.048570702986476
9.657296009824119 18.540732712772947 14.393828375060753
13.04033730571343 3.851791500976471 19.430222611256877
10.991934435279072 17.283580540128252 16.36669948154362
9.562030776927973 18.51765941020846 14.239456783696411
12.733937427190321 4.081217817573777 18.878803789370583
9.721831156301 18.5287593680517 14.392571376856056
12.927319120618343 3.918970888283439 19.07865179070413
9.494145693164029 18.291479422179396 13.94067075836475
9.469381705021124 18.30206445575495 13.880302522301514
12.38344110652642 4.414888471005536 18.142477861175006
9.669916206075458 18.35834394148387 14.095094843836927
9.309771640472007 18.325848382662585 13.497911678978816
9.619665444996533 18.252324590020592 13.93367214158639
9.241398126491285 18.12890190901342 13.351135077368907
9.393461297658355 18.145389826181 13.565668405169696
9.54371335819617 18.124928780021293 13.765115619341884
11.539183637209051 17.109918993498773 16.534007169705628
11.35401507437033 16.892469546908696 16.0061536830866
15.621225210710609 9.571063282725232 21.99580415786263
11.581496180221635 17.03015990467788 16.189922851651147
12.174375732685851 4.331202332467895 16.973821806942254
11.797134399190222 19.99443641254298 16.430658763859956
27.501753343852627 7.560453259621925 38.02183528448868
19.667703534338926 8.472850379278203 27.069167926035096
11.61998097084104 16.178773411724343 15.970543566402906
12.335317044049466 4.335882351353314 16.95020972475298
12.419262813483204 16.74722924339217 17.040638203238867
12.419262813483204 16.74722924339217 17.040638203238867
11.413682582119637 13.470288661476966 15.570533422540581
11.726469884049026 16.855416003014895 15.973288582095533
14.319218698578316 9.623277130160107 19.43490748362272
12.015435949032785 19.769679104614074 16.280570729102127
11.760818952112936 19.625654858585552 15.91934209703819
11.75119441630659 19.63630467836903 15.882916735672929
16.01855409436812 10.028955430784318 21.58539639675843
28.487634795030953 7.300747818546727 38.19742195851669
6.7092606913345065 12.191644898733527 8.956714838506729
91.25618642265569 -1435.5955656001195 -3652.5092452952567
1.8271383766556062 3.08739009674454 8.614271935558813
1.8331274586096085 2.980992960921014 8.570038401694383
1.8331274586096085 2.980992960921014 8.570038401694383
1.6275927488985036 3.6167764419589834 7.561595283078605
1.9338775806109343 3.060677159910102 8.62192563949205
1.7615755126967183 3.5456142980283096 7.457315001955058
2.065929647634962 3.0364358008044396 8.580444169596458
1.809708479316149 3.545089664002911 7.4777400034012365
2.1801517973520217 3.4209000218476096 7.442997309923818
2.1801517973520217 3.4209000218476096 7.442997309923818
7.341983479051314 7.694066705443827 14.486205145031564
7.322554756878677 7.618320280334534 14.045678804799483
7.368880476319784 7.431963904893909 13.45290924513608
7.313726183625261 7.421929943188215 13.272210583449839
4.451442808159441 2.6572258101343245 7.402144451504862
4.026400811919448 3.6035257707323014 5.588721934534545
7.762125900521763 3.270082204255654 7.136027024365809
4.145300942570505 1.6512934819972345 3.221902466800273
6.3734834592160166 2.029440451111552 3.9130923194264584
7.112794028867742 1.6198690274074958 3.877272802856841
6.929078526362432 1.6213551318292259 3.5024057384947547
6.876372160380669 1.6144212998282264 3.4054749228746153
6.876372160380669 1.6144212998282264 3.4054749228746153
13.794632979091553 2.573259840262536 6.099623168021692
-4.3144223613357555 9.041687840387565 24.092508237560374
-4.297061533889639 9.216673338370345 24.171204940077455
-4.3170898728495715 9.030695442416533 24.34714412603076
-3.443887934336373 17.172254806468672 29.4567433510462
-3.070921577357491 17.890507728124028 28.10142900109112
0.6380749156286941 8.503757766433234 13.689772758368257
0.859956630063131 3.3924763647687066 10.08713897417622
1.233829995427913 3.3749511860462635 9.976567390090365
1.3553318502487812 3.3062751505658303 9.829901310337704
1.3553318502487812 3.3062751505658303 9.829901310337704
1.3465799282250357 3.050194628423519 9.615105465676578
1.3613803614767508 2.678905868532657 9.39697230838893
1.3794998526228117 2.7351770213083193 9.438832632386355
1.5459238568298959 3.330252367237437 9.313682177711984
1.7695734697640797 3.1180839874329798 10.2186645069644
1.6991734501083584 3.2304610880877953 9.043329461458153
1.6329791615755602 5.463738282340629 8.56243578571694
1.7402407145522996 5.209236278544998 8.57485622371552
1.9470395221021244 2.5739428475947523 9.13483727299885
1.9584343480721165 2.635252253764562 9.17895575780698
1.9584343480721165 2.635252253764562 9.17895575780698
1.941822446188231 2.4638146081566963 9.036618890767263
1.8583967227300158 5.152894518434062 8.604764925479937
1.9924349338622553 2.537169223294804 9.1301223519902
1.8721218727894864 4.90823863870952 8.565945504219414
2.161108865456995 3.1988620802057177 9.563701720945792
1.9783737951387521 4.9693248225494075 8.487018702246939
2.05718323014713 3.937200345505222 8.645593138545513
2.184386144055196 2.549748052710463 9.041612430383072
2.0236998666585744 4.957770305627589 8.360275776998856
2.220353038034304 2.6285299223862286 9.121246987017324
2.134252838510931 3.908877455472701 8.580410388375219
3.2899247328410013 4.410479769324419 12.70624462943952
2.4479396597253316 2.805476170679391 9.021844909369715
2.639890909257879 3.3308841730839513 9.493621817340617
2.722310929832907 3.3180242944520617 9.470162555906066
2.704628582176757 2.7562578596465985 9.167538259796533
2.5932422254667284 4.65100414015151 8.534299503984725
2.868916343229801 2.6313527236077596 9.372572585797569
2.8833596591953707 2.5431453494191802 9.313429225965395
2.8833596591953707 2.5431453494191802 9.313429225965395
2.8833596591953707 2.5431453494191802 9.313429225965395
2.907381731704412 2.700745637913054 9.387989924966769
2.855761354741522 3.4883195553862647 8.557857946950616
3.208260384930865 3.0140654580813084 9.40034687988157
3.303013998775599 3.1869689714573486 8.6388675798016
3.4864937283417885 3.1143779441053283 8.607759404358381
2.842074536410621 4.196051128770169 6.5001937394478295
3.772759379007566 3.8236260235745276 7.957095710158335
6.3600504309620165 6.3646087863436875 11.833705777388959
3.7493222579438568 3.992166639769365 6.523346062252531
6.65363826715225 6.218609925882365 11.438525622687923
6.6897376080185085 6.155400485822075 11.279295379263809
6.6571640062944235 6.082377966698219 11.112368103533207
6.800103295998223 6.165697737803691 11.107187285379883
6.8634946684805165 6.070460059689236 10.797599069820501
7.292553615411383 5.726712002290959 11.211471047466953
7.239314854030574 5.737540046566685 11.105152459399479
7.239314854030574 5.737540046566685 11.105152459399479
7.047183939910576 5.871870377415323 10.760475374104313
7.047183939910576 5.871870377415323 10.760475374104313
7.325833233051678 5.7457434234522715 11.153412958931229
7.3707756189991445 5.679145547965542 11.217165657285708
6.935322514429924 5.991406063719886 10.51959521940711
7.332278588882245 5.690415619943864 11.086219981038067
6.984834867676179 5.936459785041285 10.490158516200486
7.012840711153774 5.902021997398252 10.344901514112504
5.77566848992657 2.6074484939511753 8.517970051091798
7.337174804693198 5.6915651534030465 10.600911260368804
7.119588605542836 5.881429624701954 10.11515060534416
3.8536519394667224 2.0953064411296936 5.408773688711065
7.1474445158950415 5.803017113323812 9.941966075986691
7.2076646803315025 5.73052213821306 9.722171086214717
7.213732001754685 5.779710544427621 9.515170619890515
7.232940097846911 5.685536779638111 9.19444549820336
7.4621305341916 2.799705711484378 8.244634601152704
7.279951508424301 4.306032569470686 7.236702464713142
4.431382722633384 1.942666853964006 4.068396645088743
7.359622904609501 4.328853170162745 6.608283475882573
7.713269801206802 4.206735352987357 6.698823033589164
7.593364963656428 4.330796564112142 6.573257133180732
5.30230561987873 1.5466327296701237 4.489103766456311
7.681892099485222 2.0100537161411056 5.155849863616156
7.364048018346224 3.424208269255929 4.919819706883366
7.173895451447129 2.94232078142955 4.217099697515339
6.969701389971818 1.839045937942173 4.05695558212777
7.200619177383708 2.6460808941511553 4.033583768154763
7.491182046434179 1.7665465830237401 4.044757719911162
7.680350173346909 1.6069812647783162 4.081701633785188
7.955240847186895 1.6511363051903056 3.997018832626256
7.955240847186895 1.6511363051903056 3.997018832626256
7.977582626616147 1.5866574903936004 3.968426613931105
9.792975070727943 1.5574644618224798 4.734028719894069
7.793610573539002 1.219270718690328 3.6754614355571786
7.695730582430181 1.272295619880879 3.576286038689138
7.727733132481724 1.2560544207752673 3.5828589904454256
8.244380108006942 2.6768631244786145 3.6930012878535
8.433120289540021 2.5874073832050635 3.724516785849849
1.8087518290125963 5.633752728698103 9.069369850006213
